X,Y,Z,R,G,B
-1694.841431,917.015076,0.441340,255,0,0
-1694.841431,917.015076,0.441350,255,0,0
-1695.098877,917.243958,0.441360,255,0,0
-1695.241943,917.243958,0.441370,255,0,0
-1695.370728,917.301147,0.441380,255,0,0
-1695.370728,917.301147,0.441390,255,0,0
-1695.771240,917.472839,0.441400,255,0,0
-1696.042969,917.472839,0.441410,255,0,0
-1696.171753,917.530029,0.441420,255,0,0
-1696.171753,917.530029,0.441430,255,0,0
-1696.586670,917.644531,0.441440,255,0,0
-1696.586670,917.644531,0.441450,255,0,0
-1696.715332,917.701721,0.441460,255,0,0
-1696.844116,917.701721,0.441470,255,0,0
-1697.273193,917.873413,0.441480,255,0,0
-1697.516479,917.930603,0.441490,255,0,0
-1697.673828,918.045044,0.441500,255,0,0
-1698.188721,918.102295,0.441510,255,0,0
-1698.346191,918.216675,0.441520,255,0,0
-1698.617920,918.273926,0.441530,255,0,0
-1698.617920,918.273926,0.441540,255,0,0
-1699.018433,918.445557,0.441550,255,0,0
-1699.147217,918.502808,0.441560,255,0,0
-1699.261719,918.560059,0.441570,255,0,0
-1699.261719,918.560059,0.441580,255,0,0
-1699.261719,918.560059,0.441590,255,0,0
-1699.690796,918.731689,0.441600,255,0,0
-1699.690796,918.731689,0.441610,255,0,0
-1699.948364,918.731689,0.441620,255,0,0
-1699.948364,918.731689,0.441630,255,0,0
-1700.091309,918.846130,0.441640,255,0,0
-1700.091309,918.846130,0.441650,255,0,0
-1700.091309,918.846130,0.441660,255,0,0
-1700.491943,919.075012,0.441670,255,0,0
-1700.491943,919.075012,0.441680,255,0,0
-1700.620605,919.132202,0.441690,255,0,0
-1700.763672,919.189453,0.441700,255,0,0
-1701.164307,919.361084,0.441710,255,0,0
-1701.292969,919.475586,0.441720,255,0,0
-1701.436035,919.532776,0.441730,255,0,0
-1701.836548,919.647217,0.441740,255,0,0
-1701.965332,919.761658,0.441750,255,0,0
-1702.237183,919.818848,0.441760,255,0,0
-1702.637695,919.990540,0.441770,255,0,0
-1702.795044,920.047729,0.441780,255,0,0
-1702.795044,920.047729,0.441790,255,0,0
-1703.038208,920.162231,0.441800,255,0,0
-1703.038208,920.162231,0.441810,255,0,0
-1703.324341,920.276611,0.441820,255,0,0
-1703.324341,920.276611,0.441830,255,0,0
-1703.596069,920.391113,0.441840,255,0,0
-1703.724854,920.448303,0.441850,255,0,0
-1704.111084,920.619995,0.441860,255,0,0
-1704.268433,920.677185,0.441870,255,0,0
-1704.540283,920.791626,0.441880,255,0,0
-1704.940796,921.020508,0.441890,255,0,0
-1705.212646,921.077759,0.441900,255,0,0
-1705.341309,921.192139,0.441910,255,0,0
-1705.341309,921.192139,0.441920,255,0,0
-1705.741943,921.249390,0.441930,255,0,0
-1706.013672,921.306641,0.441940,255,0,0
-1706.142456,921.421021,0.441950,255,0,0
-1706.142456,921.421021,0.441960,255,0,0
-1706.571533,921.649902,0.441970,255,0,0
-1706.571533,921.649902,0.441980,255,0,0
-1706.814819,921.707153,0.441990,255,0,0
-1706.972168,921.821594,0.442000,255,0,0
-1706.972168,921.821594,0.442010,255,0,0
-1706.972168,921.821594,0.442020,255,0,0
-1707.372681,921.936035,0.442030,255,0,0
-1707.372681,921.936035,0.442040,255,0,0
-1707.644409,921.936035,0.442050,255,0,0
-1707.773193,922.050476,0.442060,255,0,0
-1707.773193,922.050476,0.442070,255,0,0
-1708.173706,922.222168,0.442080,255,0,0
-1708.173706,922.222168,0.442090,255,0,0
-1708.316772,922.451050,0.442100,255,0,0
-1708.316772,922.451050,0.442110,255,0,0
-1708.445557,922.508240,0.442120,255,0,0
-1708.717285,922.737122,0.442130,255,0,0
-1708.717285,922.737122,0.442140,255,0,0
-1708.846069,922.794312,0.442150,255,0,0
-1709.117920,922.908813,0.442160,255,0,0
-1709.389648,923.137695,0.442170,255,0,0
-1709.518433,923.194885,0.442180,255,0,0
-1709.790283,923.252075,0.442190,255,0,0
-1709.790283,923.252075,0.442200,255,0,0
-1710.062012,923.538208,0.442210,255,0,0
-1710.062012,923.538208,0.442220,255,0,0
-1710.319580,923.595459,0.442230,255,0,0
-1710.462524,923.652649,0.442240,255,0,0
-1710.863159,923.824341,0.442250,255,0,0
-1710.863159,923.824341,0.442260,255,0,0
-1710.991821,923.881531,0.442270,255,0,0
-1710.991821,923.881531,0.442280,255,0,0
-1711.149170,923.995972,0.442290,255,0,0
-1711.549805,924.167603,0.442300,255,0,0
-1711.549805,924.167603,0.442310,255,0,0
-1711.821533,924.224854,0.442320,255,0,0
-1711.936035,924.224854,0.442330,255,0,0
-1711.936035,924.224854,0.442340,255,0,0
-1712.493896,924.396484,0.442350,255,0,0
-1712.622681,924.453735,0.442360,255,0,0
-1712.894409,924.453735,0.442370,255,0,0
-1713.423706,924.625366,0.442380,255,0,0
-1713.423706,924.625366,0.442390,255,0,0
-1713.566772,924.682617,0.442400,255,0,0
-1713.566772,924.682617,0.442410,255,0,0
-1713.838623,924.797058,0.442420,255,0,0
-1713.838623,924.797058,0.442430,255,0,0
-1714.239136,924.854248,0.442440,255,0,0
-1714.496582,924.911499,0.442450,255,0,0
-1714.639648,925.025940,0.442460,255,0,0
-1715.040161,925.140381,0.442470,255,0,0
-1715.312012,925.312012,0.442480,255,0,0
-1715.312012,925.312012,0.442490,255,0,0
-1715.440796,925.426514,0.442500,255,0,0
-1715.440796,925.426514,0.442510,255,0,0
-1715.841309,925.540894,0.442520,255,0,0
-1716.113037,925.712585,0.442530,255,0,0
-1716.270508,925.769775,0.442540,255,0,0
-1716.270508,925.769775,0.442550,255,0,0
-1716.671021,925.998657,0.442560,255,0,0
-1716.799683,926.113159,0.442570,255,0,0
-1717.071533,926.170349,0.442580,255,0,0
-1717.472046,926.399231,0.442590,255,0,0
-1717.586548,926.513672,0.442600,255,0,0
-1717.872559,926.570923,0.442610,255,0,0
-1718.273193,926.742554,0.442620,255,0,0
-1718.273193,926.742554,0.442630,255,0,0
-1718.416260,926.799805,0.442640,255,0,0
-1718.687988,926.856995,0.442650,255,0,0
-1718.687988,926.856995,0.442660,255,0,0
-1718.687988,926.856995,0.442670,255,0,0
-1718.945557,927.028687,0.442680,255,0,0
-1718.945557,927.028687,0.442690,255,0,0
-1719.217285,927.143066,0.442700,255,0,0
-1719.374634,927.200317,0.442710,255,0,0
-1719.889648,927.371948,0.442720,255,0,0
-1720.018433,927.371948,0.442730,255,0,0
-1720.018433,927.371948,0.442740,255,0,0
-1720.290161,927.429199,0.442750,255,0,0
-1720.690674,927.600830,0.442760,255,0,0
-1720.690674,927.600830,0.442770,255,0,0
-1720.848145,927.658081,0.442780,255,0,0
-1720.962524,927.772522,0.442790,255,0,0
-1720.962524,927.772522,0.442800,255,0,0
-1721.363037,927.886963,0.442810,255,0,0
-1721.520386,928.001404,0.442820,255,0,0
-1721.792236,928.058594,0.442830,255,0,0
-1721.792236,928.058594,0.442840,255,0,0
-1722.192749,928.230286,0.442850,255,0,0
-1722.192749,928.230286,0.442860,255,0,0
-1722.321533,928.287476,0.442870,255,0,0
-1722.593262,928.401978,0.442880,255,0,0
-1722.593262,928.401978,0.442890,255,0,0
-1722.593262,928.401978,0.442900,255,0,0
-1723.122559,928.516357,0.442910,255,0,0
-1723.122559,928.516357,0.442920,255,0,0
-1723.265625,928.573608,0.442930,255,0,0
-1723.265625,928.573608,0.442940,255,0,0
-1723.537476,928.688049,0.442950,255,0,0
-1723.537476,928.688049,0.442960,255,0,0
-1723.937988,928.859741,0.442970,255,0,0
-1723.937988,928.859741,0.442980,255,0,0
-1724.066772,928.916931,0.442990,255,0,0
-1724.224121,928.974121,0.443000,255,0,0
-1724.224121,928.974121,0.443010,255,0,0
-1724.624634,929.145813,0.443020,255,0,0
-1724.739014,929.203003,0.443030,255,0,0
-1725.025146,929.374695,0.443040,255,0,0
-1725.025146,929.374695,0.443050,255,0,0
-1725.025146,929.374695,0.443060,255,0,0
-1725.296997,929.546387,0.443070,255,0,0
-1725.540161,929.603577,0.443080,255,0,0
-1725.540161,929.603577,0.443090,255,0,0
-1725.697510,929.775269,0.443100,255,0,0
-1725.697510,929.775269,0.443110,255,0,0
-1725.969360,929.946899,0.443120,255,0,0
-1725.969360,929.946899,0.443130,255,0,0
-1726.212524,930.004150,0.443140,255,0,0
-1726.369873,930.118530,0.443150,255,0,0
-1726.369873,930.118530,0.443160,255,0,0
-1726.369873,930.118530,0.443170,255,0,0
-1726.641602,930.233032,0.443180,255,0,0
-1726.770386,930.347412,0.443190,255,0,0
-1727.042236,930.404663,0.443200,255,0,0
-1727.313965,930.576294,0.443210,255,0,0
-1727.571533,930.633545,0.443220,255,0,0
-1727.571533,930.633545,0.443230,255,0,0
-1727.714600,930.747986,0.443240,255,0,0
-1727.714600,930.747986,0.443250,255,0,0
-1728.115112,930.862427,0.443260,255,0,0
-1728.243774,930.976868,0.443270,255,0,0
-1728.515625,931.034058,0.443280,255,0,0
-1728.787476,931.205750,0.443290,255,0,0
-1728.916138,931.377441,0.443300,255,0,0
-1729.073486,931.434631,0.443310,255,0,0
-1729.474121,931.549072,0.443320,255,0,0
-1729.745850,931.663513,0.443330,255,0,0
-1729.745850,931.663513,0.443340,255,0,0
-1729.874634,931.720703,0.443350,255,0,0
-1730.389648,931.892395,0.443360,255,0,0
-1730.389648,931.892395,0.443370,255,0,0
-1730.661377,931.892395,0.443380,255,0,0
-1730.818726,931.949585,0.443390,255,0,0
-1731.348022,932.121277,0.443400,255,0,0
-1731.619873,932.121277,0.443410,255,0,0
-1731.619873,932.121277,0.443420,255,0,0
-1731.891602,932.178467,0.443430,255,0,0
-1732.292236,932.350159,0.443440,255,0,0
-1732.292236,932.350159,0.443450,255,0,0
-1732.563965,932.350159,0.443460,255,0,0
-1732.563965,932.350159,0.443470,255,0,0
-1732.821411,932.464600,0.443480,255,0,0
-1732.821411,932.464600,0.443490,255,0,0
-1733.365112,932.579041,0.443500,255,0,0
-1733.636841,932.693481,0.443510,255,0,0
-1733.922974,932.750732,0.443520,255,0,0
-1733.922974,932.750732,0.443530,255,0,0
-1734.323486,932.922363,0.443540,255,0,0
-1734.595337,933.093994,0.443550,255,0,0
-1734.595337,933.093994,0.443560,255,0,0
-1734.723999,933.151245,0.443570,255,0,0
-1734.723999,933.151245,0.443580,255,0,0
-1735.267578,933.380127,0.443590,255,0,0
-1735.525146,933.494568,0.443600,255,0,0
-1735.668213,933.551758,0.443610,255,0,0
-1735.668213,933.551758,0.443620,255,0,0
-1736.197510,933.780640,0.443630,255,0,0
-1736.197510,933.780640,0.443640,255,0,0
-1736.340576,933.837891,0.443650,255,0,0
-1736.340576,933.837891,0.443660,255,0,0
-1736.598022,933.952332,0.443670,255,0,0
-1736.598022,933.952332,0.443680,255,0,0
-1737.141602,934.124023,0.443690,255,0,0
-1737.270386,934.181213,0.443700,255,0,0
-1737.542114,934.238403,0.443710,255,0,0
-1737.542114,934.238403,0.443720,255,0,0
-1738.100098,934.467285,0.443730,255,0,0
-1738.343262,934.524536,0.443740,255,0,0
-1738.486328,934.638977,0.443750,255,0,0
-1738.486328,934.638977,0.443760,255,0,0
-1739.015625,934.810669,0.443770,255,0,0
-1739.015625,934.810669,0.443780,255,0,0
-1739.172974,934.925049,0.443790,255,0,0
-1739.444702,935.039551,0.443800,255,0,0
-1739.845215,935.268433,0.443810,255,0,0
-1740.117065,935.325623,0.443820,255,0,0
-1740.245850,935.440063,0.443830,255,0,0
-1740.245850,935.440063,0.443840,255,0,0
-1740.245850,935.440063,0.443850,255,0,0
-1740.646362,935.668945,0.443860,255,0,0
-1740.918213,935.726196,0.443870,255,0,0
-1741.046875,935.840576,0.443880,255,0,0
-1741.046875,935.840576,0.443890,255,0,0
-1741.046875,935.840576,0.443900,255,0,0
-1741.447510,936.069458,0.443910,255,0,0
-1741.447510,936.069458,0.443920,255,0,0
-1741.719238,936.126709,0.443930,255,0,0
-1741.719238,936.126709,0.443940,255,0,0
-1741.862305,936.183960,0.443950,255,0,0
-1741.862305,936.183960,0.443960,255,0,0
-1741.862305,936.183960,0.443970,255,0,0
-1742.262817,936.355591,0.443980,255,0,0
-1742.548950,936.355591,0.443990,255,0,0
-1742.548950,936.355591,0.444000,255,0,0
-1742.792114,936.470032,0.444010,255,0,0
-1743.192627,936.584473,0.444020,255,0,0
-1743.192627,936.584473,0.444030,255,0,0
-1743.464478,936.698914,0.444040,255,0,0
-1743.464478,936.698914,0.444050,255,0,0
-1743.736328,936.756104,0.444060,255,0,0
-1744.136841,936.813354,0.444070,255,0,0
-1744.136841,936.813354,0.444080,255,0,0
-1744.422852,936.927795,0.444090,255,0,0
-1744.694702,936.984985,0.444100,255,0,0
-1744.694702,936.984985,0.444110,255,0,0
-1745.223999,937.099487,0.444120,255,0,0
-1745.495850,937.156677,0.444130,255,0,0
-1745.495850,937.156677,0.444140,255,0,0
-1745.767578,937.213867,0.444150,255,0,0
-1745.767578,937.213867,0.444160,255,0,0
-1746.296875,937.271118,0.444170,255,0,0
-1746.439941,937.385559,0.444180,255,0,0
-1746.711670,937.442749,0.444190,255,0,0
-1746.711670,937.442749,0.444200,255,0,0
-1746.711670,937.442749,0.444210,255,0,0
-1747.240967,937.614441,0.444220,255,0,0
-1747.240967,937.614441,0.444230,255,0,0
-1747.512817,937.671631,0.444240,255,0,0
-1747.641602,937.786133,0.444250,255,0,0
-1747.641602,937.786133,0.444260,255,0,0
-1747.641602,937.786133,0.444270,255,0,0
-1748.070679,938.015015,0.444280,255,0,0
-1748.070679,938.015015,0.444290,255,0,0
-1748.313965,938.072205,0.444300,255,0,0
-1748.313965,938.072205,0.444310,255,0,0
-1748.471313,938.186646,0.444320,255,0,0
-1748.471313,938.186646,0.444330,255,0,0
-1748.871826,938.415527,0.444340,255,0,0
-1749.143555,938.472778,0.444350,255,0,0
-1749.143555,938.472778,0.444360,255,0,0
-1749.272339,938.529968,0.444370,255,0,0
-1749.272339,938.529968,0.444380,255,0,0
-1749.672852,938.873291,0.444390,255,0,0
-1749.672852,938.873291,0.444400,255,0,0
-1749.944702,938.930542,0.444410,255,0,0
-1749.944702,938.930542,0.444420,255,0,0
-1750.073486,939.102173,0.444430,255,0,0
-1750.073486,939.102173,0.444440,255,0,0
-1750.073486,939.102173,0.444450,255,0,0
-1750.488281,939.273804,0.444460,255,0,0
-1750.745728,939.445496,0.444470,255,0,0
-1750.745728,939.445496,0.444480,255,0,0
-1751.017578,939.502686,0.444490,255,0,0
-1751.017578,939.502686,0.444500,255,0,0
-1751.418091,939.731567,0.444510,255,0,0
-1751.561157,939.788818,0.444520,255,0,0
-1751.818604,939.846069,0.444530,255,0,0
-1751.818604,939.846069,0.444540,255,0,0
-1751.818604,939.846069,0.444550,255,0,0
-1752.247803,940.074951,0.444560,255,0,0
-1752.247803,940.074951,0.444570,255,0,0
-1752.490967,940.132141,0.444580,255,0,0
-1752.648315,940.189331,0.444590,255,0,0
-1752.648315,940.189331,0.444600,255,0,0
-1752.648315,940.189331,0.444610,255,0,0
-1753.048950,940.418213,0.444620,255,0,0
-1753.320679,940.532715,0.444630,255,0,0
-1753.449463,940.589905,0.444640,255,0,0
-1753.449463,940.589905,0.444650,255,0,0
-1753.849976,940.761597,0.444660,255,0,0
-1753.993042,940.875977,0.444670,255,0,0
-1753.993042,940.875977,0.444680,255,0,0
-1754.121826,940.990479,0.444690,255,0,0
-1754.121826,940.990479,0.444700,255,0,0
-1754.121826,940.990479,0.444710,255,0,0
-1754.522339,941.162109,0.444720,255,0,0
-1754.665405,941.276550,0.444730,255,0,0
-1754.922852,941.390991,0.444740,255,0,0
-1755.466431,941.448242,0.444750,255,0,0
-1755.595215,941.505432,0.444760,255,0,0
-1755.866943,941.677124,0.444770,255,0,0
-1755.866943,941.677124,0.444780,255,0,0
-1755.866943,941.677124,0.444790,255,0,0
-1756.424927,941.791504,0.444800,255,0,0
-1756.424927,941.791504,0.444810,255,0,0
-1756.539307,941.848755,0.444820,255,0,0
-1756.539307,941.848755,0.444830,255,0,0
-1756.811157,941.906006,0.444840,255,0,0
-1757.211670,942.134888,0.444850,255,0,0
-1757.497803,942.249268,0.444860,255,0,0
-1757.769531,942.306519,0.444870,255,0,0
-1757.769531,942.306519,0.444880,255,0,0
-1757.769531,942.306519,0.444890,255,0,0
-1758.170166,942.478149,0.444900,255,0,0
-1758.441895,942.535400,0.444910,255,0,0
-1758.570679,942.649841,0.444920,255,0,0
-1758.570679,942.649841,0.444930,255,0,0
-1759.099976,942.878723,0.444940,255,0,0
-1759.243042,942.935913,0.444950,255,0,0
-1759.243042,942.935913,0.444960,255,0,0
-1759.514771,943.050415,0.444970,255,0,0
-1759.915405,943.222046,0.444980,255,0,0
-1760.187134,943.336487,0.444990,255,0,0
-1760.187134,943.336487,0.445000,255,0,0
-1760.444580,943.393677,0.445010,255,0,0
-1760.444580,943.393677,0.445020,255,0,0
-1760.873779,943.565369,0.445030,255,0,0
-1761.116943,943.622559,0.445040,255,0,0
-1761.274292,943.794250,0.445050,255,0,0
-1761.789307,943.965942,0.445060,255,0,0
-1761.946655,944.023132,0.445070,255,0,0
-1762.189819,944.137573,0.445080,255,0,0
-1762.619019,944.252014,0.445090,255,0,0
-1762.747803,944.366455,0.445100,255,0,0
-1763.019531,944.423706,0.445110,255,0,0
-1763.019531,944.423706,0.445120,255,0,0
-1763.019531,944.423706,0.445130,255,0,0
-1763.548828,944.595337,0.445140,255,0,0
-1763.691895,944.652588,0.445150,255,0,0
-1763.963745,944.766968,0.445160,255,0,0
-1763.963745,944.766968,0.445170,255,0,0
-1764.493042,944.881470,0.445180,255,0,0
-1764.764771,944.995850,0.445190,255,0,0
-1764.893555,945.053101,0.445200,255,0,0
-1765.437134,945.281982,0.445210,255,0,0
-1765.565918,945.396423,0.445220,255,0,0
-1765.837646,945.453613,0.445230,255,0,0
-1766.238159,945.682495,0.445240,255,0,0
-1766.524292,945.739746,0.445250,255,0,0
-1766.796143,945.854187,0.445260,255,0,0
-1767.196655,946.083069,0.445270,255,0,0
-1767.196655,946.083069,0.445280,255,0,0
-1767.468506,946.140259,0.445290,255,0,0
-1767.468506,946.140259,0.445300,255,0,0
-1767.711670,946.197510,0.445310,255,0,0
-1767.711670,946.197510,0.445320,255,0,0
-1768.140747,946.426392,0.445330,255,0,0
-1768.140747,946.426392,0.445340,255,0,0
-1768.398315,946.483643,0.445350,255,0,0
-1768.541382,946.598022,0.445360,255,0,0
-1768.541382,946.598022,0.445370,255,0,0
-1768.541382,946.598022,0.445380,255,0,0
-1769.070679,946.769714,0.445390,255,0,0
-1769.342407,946.826904,0.445400,255,0,0
-1769.471191,946.998596,0.445410,255,0,0
-1769.471191,946.998596,0.445420,255,0,0
-1769.885986,947.170288,0.445430,255,0,0
-1770.143555,947.227478,0.445440,255,0,0
-1770.286621,947.341919,0.445450,255,0,0
-1770.286621,947.341919,0.445460,255,0,0
-1770.572632,947.456360,0.445470,255,0,0
-1770.572632,947.570801,0.445480,255,0,0
-1770.687134,947.628052,0.445490,255,0,0
-1770.687134,947.628052,0.445500,255,0,0
-1770.687134,947.628052,0.445510,255,0,0
-1770.815796,947.856934,0.445520,255,0,0
-1770.815796,947.971313,0.445530,255,0,0
-1770.973145,948.028564,0.445540,255,0,0
-1770.973145,948.028564,0.445550,255,0,0
-1770.973145,948.028564,0.445560,255,0,0
-1770.973145,948.200195,0.445570,255,0,0
-1770.973145,948.200195,0.445580,255,0,0
-1770.973145,948.200195,0.445590,255,0,0
-1770.815796,948.257446,0.445600,255,0,0
-1770.687134,948.371887,0.445610,255,0,0
-1770.687134,948.371887,0.445620,255,0,0
-1770.572632,948.371887,0.445630,255,0,0
-1770.572632,948.371887,0.445640,255,0,0
-1746.296875,644.473999,0.445650,255,0,0
-1747.240967,644.416809,0.445660,255,0,0
-1747.240967,644.416809,0.445670,255,0,0
-1747.641602,644.416809,0.445680,255,0,0
-1748.199463,644.416809,0.445690,255,0,0
-1748.199463,644.416809,0.445700,255,0,0
-1748.199463,644.416809,0.445710,255,0,0
-1748.986206,644.473999,0.445720,255,0,0
-1748.986206,644.473999,0.445730,255,0,0
-1749.544189,644.588501,0.445740,255,0,0
-1749.544189,644.588501,0.445750,255,0,0
-1749.944702,644.588501,0.445760,255,0,0
-1749.944702,644.588501,0.445770,255,0,0
-1749.944702,644.588501,0.445780,255,0,0
-1750.745728,644.702881,0.445790,255,0,0
-1750.745728,644.702881,0.445800,255,0,0
-1751.146362,644.817383,0.445810,255,0,0
-1751.146362,644.817383,0.445820,255,0,0
-1751.561157,644.817383,0.445830,255,0,0
-1751.561157,644.817383,0.445840,255,0,0
-1752.362305,644.817383,0.445850,255,0,0
-1752.362305,644.817383,0.445860,255,0,0
-1752.648315,644.817383,0.445870,255,0,0
-1752.648315,644.817383,0.445880,255,0,0
-1753.048950,644.817383,0.445890,255,0,0
-1753.048950,644.817383,0.445900,255,0,0
-1753.721191,644.645691,0.445910,255,0,0
-1753.721191,644.645691,0.445920,255,0,0
-1753.993042,644.645691,0.445930,255,0,0
-1753.993042,644.645691,0.445940,255,0,0
-1754.236206,644.588501,0.445950,255,0,0
-1754.236206,644.588501,0.445960,255,0,0
-1754.236206,644.588501,0.445970,255,0,0
-1754.794067,644.416809,0.445980,255,0,0
-1754.794067,644.416809,0.445990,255,0,0
-1755.065918,644.416809,0.446000,255,0,0
-1755.065918,644.416809,0.446010,255,0,0
-1755.337769,644.302368,0.446020,255,0,0
-1755.337769,644.302368,0.446030,255,0,0
-1755.738281,644.187927,0.446040,255,0,0
-1755.738281,644.187927,0.446050,255,0,0
-1756.024414,644.073486,0.446060,255,0,0
-1756.024414,644.073486,0.446070,255,0,0
-1756.138794,644.016235,0.446080,255,0,0
-1756.138794,644.016235,0.446090,255,0,0
-1756.138794,644.016235,0.446100,255,0,0
-1756.668091,643.959045,0.446110,255,0,0
-1756.668091,643.959045,0.446120,255,0,0
-1756.811157,643.959045,0.446130,255,0,0
-1756.811157,643.959045,0.446140,255,0,0
-1756.939941,643.959045,0.446150,255,0,0
-1756.939941,643.959045,0.446160,255,0,0
-1756.939941,643.959045,0.446170,255,0,0
-1757.340454,643.959045,0.446180,255,0,0
-1757.340454,643.959045,0.446190,255,0,0
-1757.497803,644.016235,0.446200,255,0,0
-1757.612183,644.073486,0.446210,255,0,0
-1757.612183,644.073486,0.446220,255,0,0
-1757.612183,644.073486,0.446230,255,0,0
-1757.898315,644.245117,0.446240,255,0,0
-1757.898315,644.245117,0.446250,255,0,0
-1758.012817,644.416809,0.446260,255,0,0
-1758.012817,644.416809,0.446270,255,0,0
-1758.170166,644.473999,0.446280,255,0,0
-1758.170166,644.473999,0.446290,255,0,0
-1758.170166,644.473999,0.446300,255,0,0
-1758.570679,644.702881,0.446310,255,0,0
-1758.570679,644.702881,0.446320,255,0,0
-1758.699463,644.874573,0.446330,255,0,0
-1758.699463,644.874573,0.446340,255,0,0
-1758.971191,644.931763,0.446350,255,0,0
-1758.971191,644.931763,0.446360,255,0,0
-1758.971191,644.931763,0.446370,255,0,0
-1759.371704,645.103455,0.446380,255,0,0
-1759.371704,645.103455,0.446390,255,0,0
-1759.514771,645.217896,0.446400,255,0,0
-1759.514771,645.217896,0.446410,255,0,0
-1759.772339,645.275146,0.446420,255,0,0
-1759.772339,645.275146,0.446430,255,0,0
-1760.187134,645.332336,0.446440,255,0,0
-1760.187134,645.332336,0.446450,255,0,0
-1760.444580,645.332336,0.446460,255,0,0
-1760.587646,645.332336,0.446470,255,0,0
-1760.587646,645.332336,0.446480,255,0,0
-1760.587646,645.332336,0.446490,255,0,0
-1760.988281,645.275146,0.446500,255,0,0
-1761.274292,645.275146,0.446510,255,0,0
-1761.274292,645.275146,0.446520,255,0,0
-1761.517578,645.217896,0.446530,255,0,0
-1761.517578,645.217896,0.446540,255,0,0
-1761.517578,645.217896,0.446550,255,0,0
-1761.789307,645.103455,0.446560,255,0,0
-1761.789307,645.103455,0.446570,255,0,0
-1761.946655,645.046265,0.446580,255,0,0
-1761.946655,645.046265,0.446590,255,0,0
-1762.061157,644.931763,0.446600,255,0,0
-1762.061157,644.931763,0.446610,255,0,0
-1762.061157,644.931763,0.446620,255,0,0
-1762.461670,644.874573,0.446630,255,0,0
-1762.461670,644.874573,0.446640,255,0,0
-1762.619019,644.817383,0.446650,255,0,0
-1762.619019,644.702881,0.446660,255,0,0
-1762.619019,644.702881,0.446670,255,0,0
-1762.862183,644.645691,0.446680,255,0,0
-1763.019531,644.645691,0.446690,255,0,0
-1763.148315,644.588501,0.446700,255,0,0
-1763.148315,644.588501,0.446710,255,0,0
-1763.148315,644.588501,0.446720,255,0,0
-1763.291382,644.588501,0.446730,255,0,0
-1763.291382,644.588501,0.446740,255,0,0
-1763.291382,644.588501,0.446750,255,0,0
-1763.291382,644.588501,0.446760,255,0,0
-1763.420166,644.588501,0.446770,255,0,0
-1763.420166,644.588501,0.446780,255,0,0
-1763.691895,644.645691,0.446790,255,0,0
-1763.691895,644.645691,0.446800,255,0,0
-1763.691895,644.702881,0.446810,255,0,0
-1763.691895,644.702881,0.446820,255,0,0
-1763.820679,644.817383,0.446830,255,0,0
-1763.820679,644.817383,0.446840,255,0,0
-1763.963745,644.931763,0.446850,255,0,0
-1764.092407,645.103455,0.446860,255,0,0
-1764.092407,645.103455,0.446870,255,0,0
-1764.221191,645.217896,0.446880,255,0,0
-1764.221191,645.217896,0.446890,255,0,0
-1764.221191,645.217896,0.446900,255,0,0
-1764.493042,645.446777,0.446910,255,0,0
-1764.493042,645.446777,0.446920,255,0,0
-1764.493042,645.504028,0.446930,255,0,0
-1764.493042,645.504028,0.446940,255,0,0
-1764.621704,645.561218,0.446950,255,0,0
-1764.621704,645.561218,0.446960,255,0,0
-1764.621704,645.561218,0.446970,255,0,0
-1764.893555,645.847290,0.446980,255,0,0
-1764.893555,645.847290,0.446990,255,0,0
-1765.036621,645.847290,0.447000,255,0,0
-1765.036621,645.847290,0.447010,255,0,0
-1765.165283,645.961792,0.447020,255,0,0
-1765.165283,645.961792,0.447030,255,0,0
-1765.294067,645.961792,0.447040,255,0,0
-1765.294067,645.961792,0.447050,255,0,0
-1765.437134,646.076172,0.447060,255,0,0
-1765.723267,646.133423,0.447070,255,0,0
-1765.723267,646.133423,0.447080,255,0,0
-1765.723267,646.133423,0.447090,255,0,0
-1765.966431,646.247864,0.447100,255,0,0
-1765.966431,646.247864,0.447110,255,0,0
-1766.123779,646.305054,0.447120,255,0,0
-1766.123779,646.305054,0.447130,255,0,0
-1766.395508,646.305054,0.447140,255,0,0
-1766.395508,646.305054,0.447150,255,0,0
-1766.395508,646.305054,0.447160,255,0,0
-1766.638794,646.362305,0.447170,255,0,0
-1766.638794,646.362305,0.447180,255,0,0
-1766.796143,646.476746,0.447190,255,0,0
-1766.796143,646.476746,0.447200,255,0,0
-1766.924805,646.476746,0.447210,255,0,0
-1766.924805,646.476746,0.447220,255,0,0
-1766.924805,646.476746,0.447230,255,0,0
-1767.311035,646.533936,0.447240,255,0,0
-1767.311035,646.533936,0.447250,255,0,0
-1767.468506,646.533936,0.447260,255,0,0
-1767.597168,646.533936,0.447270,255,0,0
-1767.597168,646.533936,0.447280,255,0,0
-1767.997803,646.533936,0.447290,255,0,0
-1767.997803,646.533936,0.447300,255,0,0
-1768.269531,646.533936,0.447310,255,0,0
-1768.398315,646.533936,0.447320,255,0,0
-1768.398315,646.533936,0.447330,255,0,0
-1768.813110,646.533936,0.447340,255,0,0
-1768.813110,646.533936,0.447350,255,0,0
-1769.070679,646.476746,0.447360,255,0,0
-1769.342407,646.476746,0.447370,255,0,0
-1769.342407,646.476746,0.447380,255,0,0
-1769.742920,646.476746,0.447390,255,0,0
-1770.014771,646.476746,0.447400,255,0,0
-1770.014771,646.476746,0.447410,255,0,0
-1770.286621,646.476746,0.447420,255,0,0
-1770.286621,646.476746,0.447430,255,0,0
-1770.286621,646.476746,0.447440,255,0,0
-1770.815796,646.476746,0.447450,255,0,0
-1771.087646,646.533936,0.447460,255,0,0
-1771.087646,646.533936,0.447470,255,0,0
-1771.373779,646.533936,0.447480,255,0,0
-1771.373779,646.533936,0.447490,255,0,0
-1771.373779,646.533936,0.447500,255,0,0
-1771.888672,646.648438,0.447510,255,0,0
-1772.174805,646.762817,0.447520,255,0,0
-1772.446655,646.877319,0.447530,255,0,0
-1772.446655,646.877319,0.447540,255,0,0
-1772.446655,646.877319,0.447550,255,0,0
-1772.990234,646.934509,0.447560,255,0,0
-1772.990234,646.934509,0.447570,255,0,0
-1773.119019,646.991699,0.447580,255,0,0
-1773.390747,647.048950,0.447590,255,0,0
-1773.390747,647.048950,0.447600,255,0,0
-1773.920044,647.048950,0.447610,255,0,0
-1773.920044,647.048950,0.447620,255,0,0
-1774.191895,647.163391,0.447630,255,0,0
-1774.191895,647.163391,0.447640,255,0,0
-1774.463623,647.163391,0.447650,255,0,0
-1774.463623,647.163391,0.447660,255,0,0
-1774.463623,647.163391,0.447670,255,0,0
-1774.864258,647.163391,0.447680,255,0,0
-1775.135986,647.220581,0.447690,255,0,0
-1775.135986,647.220581,0.447700,255,0,0
-1775.422119,647.220581,0.447710,255,0,0
-1775.937134,647.220581,0.447720,255,0,0
-1775.937134,647.220581,0.447730,255,0,0
-1776.223145,647.163391,0.447740,255,0,0
-1776.494995,647.163391,0.447750,255,0,0
-1776.895508,647.163391,0.447760,255,0,0
-1776.895508,647.163391,0.447770,255,0,0
-1777.167358,647.163391,0.447780,255,0,0
-1777.167358,647.163391,0.447790,255,0,0
-1777.424805,647.220581,0.447800,255,0,0
-1777.424805,647.220581,0.447810,255,0,0
-1777.424805,647.220581,0.447820,255,0,0
-1777.839600,647.220581,0.447830,255,0,0
-1777.839600,647.220581,0.447840,255,0,0
-1778.097168,647.220581,0.447850,255,0,0
-1778.097168,647.220581,0.447860,255,0,0
-1778.368896,647.220581,0.447870,255,0,0
-1778.368896,647.220581,0.447880,255,0,0
-1778.368896,647.220581,0.447890,255,0,0
-1778.769531,647.277832,0.447900,255,0,0
-1778.769531,647.277832,0.447910,255,0,0
-1779.041260,647.392273,0.447920,255,0,0
-1779.041260,647.392273,0.447930,255,0,0
-1779.441895,647.392273,0.447940,255,0,0
-1779.441895,647.392273,0.447950,255,0,0
-1779.441895,647.392273,0.447960,255,0,0
-1779.999756,647.449463,0.447970,255,0,0
-1779.999756,647.449463,0.447980,255,0,0
-1780.271484,647.449463,0.447990,255,0,0
-1780.271484,647.449463,0.448000,255,0,0
-1780.514771,647.563965,0.448010,255,0,0
-1780.514771,647.563965,0.448020,255,0,0
-1780.943848,647.563965,0.448030,255,0,0
-1781.187012,647.563965,0.448040,255,0,0
-1781.344360,647.563965,0.448050,255,0,0
-1781.344360,647.563965,0.448060,255,0,0
-1781.344360,647.563965,0.448070,255,0,0
-1781.873657,647.563965,0.448080,255,0,0
-1782.145508,647.563965,0.448090,255,0,0
-1782.145508,647.563965,0.448100,255,0,0
-1782.288574,647.563965,0.448110,255,0,0
-1782.288574,647.563965,0.448120,255,0,0
-1782.288574,647.563965,0.448130,255,0,0
-1782.689087,647.563965,0.448140,255,0,0
-1782.689087,647.563965,0.448150,255,0,0
-1782.946533,647.621155,0.448160,255,0,0
-1782.946533,647.621155,0.448170,255,0,0
-1783.218384,647.621155,0.448180,255,0,0
-1783.218384,647.621155,0.448190,255,0,0
-1783.618896,647.678345,0.448200,255,0,0
-1783.618896,647.678345,0.448210,255,0,0
-1783.761963,647.792847,0.448220,255,0,0
-1783.761963,647.792847,0.448230,255,0,0
-1784.048096,647.850037,0.448240,255,0,0
-1784.048096,647.850037,0.448250,255,0,0
-1784.048096,647.850037,0.448260,255,0,0
-1784.448608,648.021729,0.448270,255,0,0
-1784.448608,648.021729,0.448280,255,0,0
-1784.720459,648.021729,0.448290,255,0,0
-1784.720459,648.021729,0.448300,255,0,0
-1784.963623,648.078918,0.448310,255,0,0
-1784.963623,648.078918,0.448320,255,0,0
-1784.963623,648.078918,0.448330,255,0,0
-1785.521484,648.078918,0.448340,255,0,0
-1785.521484,648.078918,0.448350,255,0,0
-1785.635986,648.193359,0.448360,255,0,0
-1785.635986,648.193359,0.448370,255,0,0
-1785.921997,648.078918,0.448380,255,0,0
-1785.921997,648.078918,0.448390,255,0,0
-1785.921997,648.078918,0.448400,255,0,0
-1786.322632,648.078918,0.448410,255,0,0
-1786.465698,648.078918,0.448420,255,0,0
-1786.723145,648.021729,0.448430,255,0,0
-1787.137939,647.964478,0.448440,255,0,0
-1787.266724,647.964478,0.448450,255,0,0
-1787.266724,647.964478,0.448460,255,0,0
-1787.538574,647.850037,0.448470,255,0,0
-1787.538574,647.850037,0.448480,255,0,0
-1787.939087,647.792847,0.448490,255,0,0
-1788.067871,647.792847,0.448500,255,0,0
-1788.210815,647.792847,0.448510,255,0,0
-1788.468384,647.678345,0.448520,255,0,0
-1788.468384,647.678345,0.448530,255,0,0
-1788.611450,647.792847,0.448540,255,0,0
-1788.611450,647.792847,0.448550,255,0,0
-1788.897461,647.678345,0.448560,255,0,0
-1788.897461,647.678345,0.448570,255,0,0
-1788.897461,647.678345,0.448580,255,0,0
-1789.140747,647.678345,0.448590,255,0,0
-1789.298096,647.792847,0.448600,255,0,0
-1789.298096,647.792847,0.448610,255,0,0
-1789.569824,647.792847,0.448620,255,0,0
-1789.569824,647.792847,0.448630,255,0,0
-1789.569824,647.792847,0.448640,255,0,0
-1789.970459,647.850037,0.448650,255,0,0
-1789.970459,647.850037,0.448660,255,0,0
-1790.099121,647.964478,0.448670,255,0,0
-1790.099121,647.964478,0.448680,255,0,0
-1790.370972,648.021729,0.448690,255,0,0
-1790.370972,648.021729,0.448700,255,0,0
-1790.370972,648.021729,0.448710,255,0,0
-1790.771484,648.193359,0.448720,255,0,0
-1790.771484,648.193359,0.448730,255,0,0
-1790.885986,648.193359,0.448740,255,0,0
-1790.885986,648.193359,0.448750,255,0,0
-1791.171997,648.250610,0.448760,255,0,0
-1791.171997,648.250610,0.448770,255,0,0
-1791.171997,648.250610,0.448780,255,0,0
-1791.572510,648.422241,0.448790,255,0,0
-1791.572510,648.422241,0.448800,255,0,0
-1791.715576,648.307800,0.448810,255,0,0
-1791.715576,648.307800,0.448820,255,0,0
-1791.987427,648.422241,0.448830,255,0,0
-1791.987427,648.422241,0.448840,255,0,0
-1792.244873,648.479492,0.448850,255,0,0
-1792.244873,648.479492,0.448860,255,0,0
-1792.516724,648.422241,0.448870,255,0,0
-1792.516724,648.422241,0.448880,255,0,0
-1792.788452,648.479492,0.448890,255,0,0
-1792.788452,648.479492,0.448900,255,0,0
-1792.788452,648.479492,0.448910,255,0,0
-1793.189087,648.422241,0.448920,255,0,0
-1793.189087,648.422241,0.448930,255,0,0
-1793.317749,648.422241,0.448940,255,0,0
-1793.317749,648.422241,0.448950,255,0,0
-1793.589600,648.479492,0.448960,255,0,0
-1793.589600,648.479492,0.448970,255,0,0
-1793.990112,648.479492,0.448980,255,0,0
-1793.990112,648.479492,0.448990,255,0,0
-1794.147461,648.593872,0.449000,255,0,0
-1794.147461,648.593872,0.449010,255,0,0
-1794.261963,648.593872,0.449020,255,0,0
-1794.261963,648.593872,0.449030,255,0,0
-1794.261963,648.593872,0.449040,255,0,0
-1794.662476,648.708374,0.449050,255,0,0
-1794.662476,648.708374,0.449060,255,0,0
-1794.948608,648.822754,0.449070,255,0,0
-1794.948608,648.822754,0.449080,255,0,0
-1795.091675,648.880005,0.449090,255,0,0
-1795.492188,649.051636,0.449100,255,0,0
-1795.492188,649.051636,0.449110,255,0,0
-1795.749634,649.051636,0.449120,255,0,0
-1795.749634,649.051636,0.449130,255,0,0
-1796.021484,649.108887,0.449140,255,0,0
-1796.021484,649.108887,0.449150,255,0,0
-1796.421997,649.223328,0.449160,255,0,0
-1796.421997,649.223328,0.449170,255,0,0
-1796.693848,649.108887,0.449180,255,0,0
-1796.693848,649.108887,0.449190,255,0,0
-1796.836914,649.108887,0.449200,255,0,0
-1796.836914,649.108887,0.449210,255,0,0
-1796.836914,649.108887,0.449220,255,0,0
-1797.366089,649.108887,0.449230,255,0,0
-1797.366089,649.108887,0.449240,255,0,0
-1797.523438,649.223328,0.449250,255,0,0
-1797.766724,649.108887,0.449260,255,0,0
-1797.766724,649.108887,0.449270,255,0,0
-1798.167236,649.223328,0.449280,255,0,0
-1798.167236,649.223328,0.449290,255,0,0
-1798.438965,649.223328,0.449300,255,0,0
-1798.438965,649.223328,0.449310,255,0,0
-1798.725098,649.223328,0.449320,255,0,0
-1798.725098,649.223328,0.449330,255,0,0
-1799.111328,649.223328,0.449340,255,0,0
-1799.397461,649.223328,0.449350,255,0,0
-1799.397461,649.223328,0.449360,255,0,0
-1799.669312,649.223328,0.449370,255,0,0
-1799.669312,649.223328,0.449380,255,0,0
-1799.669312,649.223328,0.449390,255,0,0
-1800.069824,649.223328,0.449400,255,0,0
-1800.198608,649.223328,0.449410,255,0,0
-1800.198608,649.223328,0.449420,255,0,0
-1800.470337,649.223328,0.449430,255,0,0
-1800.470337,649.223328,0.449440,255,0,0
-1800.470337,649.223328,0.449450,255,0,0
-1801.013916,649.223328,0.449460,255,0,0
-1801.013916,649.223328,0.449470,255,0,0
-1801.142700,649.223328,0.449480,255,0,0
-1801.142700,649.223328,0.449490,255,0,0
-1801.414551,649.223328,0.449500,255,0,0
-1801.414551,649.223328,0.449510,255,0,0
-1801.414551,649.223328,0.449520,255,0,0
-1801.943726,649.223328,0.449530,255,0,0
-1801.943726,649.223328,0.449540,255,0,0
-1802.086792,649.280518,0.449550,255,0,0
-1802.086792,649.280518,0.449560,255,0,0
-1802.372925,649.280518,0.449570,255,0,0
-1802.372925,649.280518,0.449580,255,0,0
-1802.887939,649.337769,0.449590,255,0,0
-1802.887939,649.337769,0.449600,255,0,0
-1803.045288,649.337769,0.449610,255,0,0
-1803.045288,649.337769,0.449620,255,0,0
-1803.288452,649.337769,0.449630,255,0,0
-1803.288452,649.337769,0.449640,255,0,0
-1803.288452,649.337769,0.449650,255,0,0
-1803.846313,649.452209,0.449660,255,0,0
-1803.975098,649.452209,0.449670,255,0,0
-1803.975098,649.452209,0.449680,255,0,0
-1804.246948,649.452209,0.449690,255,0,0
-1804.246948,649.452209,0.449700,255,0,0
-1804.790527,649.452209,0.449710,255,0,0
-1804.919189,649.337769,0.449720,255,0,0
-1804.919189,649.337769,0.449730,255,0,0
-1805.191040,649.337769,0.449740,255,0,0
-1805.191040,649.337769,0.449750,255,0,0
-1805.191040,649.337769,0.449760,255,0,0
-1805.591553,649.280518,0.449770,255,0,0
-1805.863403,649.280518,0.449780,255,0,0
-1806.120850,649.280518,0.449790,255,0,0
-1806.120850,649.280518,0.449800,255,0,0
-1806.120850,649.280518,0.449810,255,0,0
-1806.664429,649.280518,0.449820,255,0,0
-1806.936279,649.280518,0.449830,255,0,0
-1807.222412,649.337769,0.449840,255,0,0
-1807.222412,649.337769,0.449850,255,0,0
-1807.222412,649.337769,0.449860,255,0,0
-1807.622925,649.337769,0.449870,255,0,0
-1807.622925,649.337769,0.449880,255,0,0
-1807.894653,649.337769,0.449890,255,0,0
-1807.894653,649.337769,0.449900,255,0,0
-1808.137939,649.452209,0.449910,255,0,0
-1808.137939,649.452209,0.449920,255,0,0
-1808.137939,649.452209,0.449930,255,0,0
-1808.538452,649.452209,0.449940,255,0,0
-1808.538452,649.452209,0.449950,255,0,0
-1808.824585,649.509399,0.449960,255,0,0
-1809.096313,649.452209,0.449970,255,0,0
-1809.096313,649.452209,0.449980,255,0,0
-1809.096313,649.452209,0.449990,255,0,0
-1809.496826,649.452209,0.450000,255,0,0
-1809.496826,649.452209,0.450010,255,0,0
-1809.768677,649.452209,0.450020,255,0,0
-1809.768677,649.452209,0.450030,255,0,0
-1809.897461,649.452209,0.450040,255,0,0
-1809.897461,649.452209,0.450050,255,0,0
-1810.312256,649.452209,0.450060,255,0,0
-1810.312256,649.452209,0.450070,255,0,0
-1810.569824,649.509399,0.450080,255,0,0
-1810.569824,649.509399,0.450090,255,0,0
-1810.841553,649.509399,0.450100,255,0,0
-1810.841553,649.509399,0.450110,255,0,0
-1810.841553,649.509399,0.450120,255,0,0
-1811.242065,649.509399,0.450130,255,0,0
-1811.242065,649.509399,0.450140,255,0,0
-1811.513916,649.566650,0.450150,255,0,0
-1811.642700,649.623901,0.450160,255,0,0
-1811.642700,649.623901,0.450170,255,0,0
-1811.642700,649.623901,0.450180,255,0,0
-1812.071777,649.738281,0.450190,255,0,0
-1812.071777,649.738281,0.450200,255,0,0
-1812.314941,649.852783,0.450210,255,0,0
-1812.314941,649.852783,0.450220,255,0,0
-1812.586792,649.852783,0.450230,255,0,0
-1812.586792,649.852783,0.450240,255,0,0
-1812.987305,649.852783,0.450250,255,0,0
-1812.987305,649.852783,0.450260,255,0,0
-1813.273438,649.852783,0.450270,255,0,0
-1813.273438,649.852783,0.450280,255,0,0
-1813.545166,649.852783,0.450290,255,0,0
-1813.545166,649.852783,0.450300,255,0,0
-1813.945801,649.738281,0.450310,255,0,0
-1813.945801,649.738281,0.450320,255,0,0
-1814.217529,649.738281,0.450330,255,0,0
-1814.217529,649.738281,0.450340,255,0,0
-1814.346313,649.623901,0.450350,255,0,0
-1814.346313,649.623901,0.450360,255,0,0
-1814.889893,649.566650,0.450370,255,0,0
-1814.889893,649.566650,0.450380,255,0,0
-1815.161743,649.566650,0.450390,255,0,0
-1815.161743,649.566650,0.450400,255,0,0
-1815.290405,649.509399,0.450410,255,0,0
-1815.290405,649.509399,0.450420,255,0,0
-1815.290405,649.509399,0.450430,255,0,0
-1815.691040,649.509399,0.450440,255,0,0
-1815.691040,649.509399,0.450450,255,0,0
-1815.962769,649.509399,0.450460,255,0,0
-1816.248901,649.509399,0.450470,255,0,0
-1816.248901,649.509399,0.450480,255,0,0
-1816.248901,649.509399,0.450490,255,0,0
-1816.649414,649.452209,0.450500,255,0,0
-1816.649414,649.452209,0.450510,255,0,0
-1816.763916,649.509399,0.450520,255,0,0
-1816.763916,649.509399,0.450530,255,0,0
-1817.049927,649.452209,0.450540,255,0,0
-1817.049927,649.452209,0.450550,255,0,0
-1817.436279,649.509399,0.450560,255,0,0
-1817.436279,649.509399,0.450570,255,0,0
-1817.593628,649.509399,0.450580,255,0,0
-1817.593628,649.509399,0.450590,255,0,0
-1817.722290,649.566650,0.450600,255,0,0
-1817.722290,649.566650,0.450610,255,0,0
-1817.994141,649.623901,0.450620,255,0,0
-1817.994141,649.623901,0.450630,255,0,0
-1818.122803,649.738281,0.450640,255,0,0
-1818.122803,649.738281,0.450650,255,0,0
-1818.265869,649.852783,0.450660,255,0,0
-1818.265869,649.852783,0.450670,255,0,0
-1818.265869,649.852783,0.450680,255,0,0
-1818.523438,649.967163,0.450690,255,0,0
-1818.523438,650.024414,0.450700,255,0,0
-1818.666504,650.196045,0.450710,255,0,0
-1818.923950,650.424927,0.450720,255,0,0
-1819.067017,650.596619,0.450730,255,0,0
-1819.195801,650.653809,0.450740,255,0,0
-1819.195801,650.653809,0.450750,255,0,0
-1819.195801,650.653809,0.450760,255,0,0
-1819.338745,650.825500,0.450770,255,0,0
-1819.338745,650.825500,0.450780,255,0,0
-1819.467529,650.997192,0.450790,255,0,0
-1819.596313,650.997192,0.450800,255,0,0
-1819.596313,650.997192,0.450810,255,0,0
-1819.596313,650.997192,0.450820,255,0,0
-1819.868042,651.168823,0.450830,255,0,0
-1820.139893,651.226074,0.450840,255,0,0
-1820.139893,651.226074,0.450850,255,0,0
-1820.268677,651.226074,0.450860,255,0,0
-1820.268677,651.226074,0.450870,255,0,0
-1820.697754,651.283264,0.450880,255,0,0
-1820.697754,651.283264,0.450890,255,0,0
-1820.812256,651.397705,0.450900,255,0,0
-1820.812256,651.397705,0.450910,255,0,0
-1820.940918,651.397705,0.450920,255,0,0
-1820.940918,651.397705,0.450930,255,0,0
-1821.370117,651.454956,0.450940,255,0,0
-1821.498901,651.454956,0.450950,255,0,0
-1821.770630,651.454956,0.450960,255,0,0
-1821.770630,651.454956,0.450970,255,0,0
-1821.770630,651.454956,0.450980,255,0,0
-1822.171265,651.569336,0.450990,255,0,0
-1822.299927,651.454956,0.451000,255,0,0
-1822.299927,651.454956,0.451010,255,0,0
-1822.571777,651.454956,0.451020,255,0,0
-1822.571777,651.454956,0.451030,255,0,0
-1822.972290,651.454956,0.451040,255,0,0
-1822.972290,651.454956,0.451050,255,0,0
-1823.244141,651.454956,0.451060,255,0,0
-1823.244141,651.454956,0.451070,255,0,0
-1823.372803,651.454956,0.451080,255,0,0
-1823.787720,651.397705,0.451090,255,0,0
-1824.045166,651.397705,0.451100,255,0,0
-1824.317017,651.397705,0.451110,255,0,0
-1824.317017,651.397705,0.451120,255,0,0
-1824.317017,651.397705,0.451130,255,0,0
-1824.717529,651.397705,0.451140,255,0,0
-1824.717529,651.397705,0.451150,255,0,0
-1824.989258,651.397705,0.451160,255,0,0
-1824.989258,651.397705,0.451170,255,0,0
-1825.261108,651.397705,0.451180,255,0,0
-1825.261108,651.397705,0.451190,255,0,0
-1825.661621,651.397705,0.451200,255,0,0
-1825.661621,651.397705,0.451210,255,0,0
-1825.947754,651.454956,0.451220,255,0,0
-1825.947754,651.454956,0.451230,255,0,0
-1826.062256,651.454956,0.451240,255,0,0
-1826.062256,651.454956,0.451250,255,0,0
-1826.062256,651.454956,0.451260,255,0,0
-1826.620117,651.569336,0.451270,255,0,0
-1826.620117,651.569336,0.451280,255,0,0
-1826.748901,651.626587,0.451290,255,0,0
-1826.748901,651.626587,0.451300,255,0,0
-1827.020630,651.683838,0.451310,255,0,0
-1827.020630,651.683838,0.451320,255,0,0
-1827.020630,651.683838,0.451330,255,0,0
-1827.421143,651.798218,0.451340,255,0,0
-1827.692993,651.855469,0.451350,255,0,0
-1827.692993,651.855469,0.451360,255,0,0
-1827.964844,651.912720,0.451370,255,0,0
-1827.964844,651.912720,0.451380,255,0,0
-1827.964844,651.912720,0.451390,255,0,0
-1828.222290,652.084351,0.451400,255,0,0
-1828.222290,652.084351,0.451410,255,0,0
-1828.494019,652.198792,0.451420,255,0,0
-1828.494019,652.198792,0.451430,255,0,0
-1828.637085,652.255981,0.451440,255,0,0
-1828.637085,652.255981,0.451450,255,0,0
-1828.637085,652.255981,0.451460,255,0,0
-1829.037720,652.427673,0.451470,255,0,0
-1829.037720,652.427673,0.451480,255,0,0
-1829.166382,652.484863,0.451490,255,0,0
-1829.166382,652.484863,0.451500,255,0,0
-1829.438232,652.542114,0.451510,255,0,0
-1829.438232,652.542114,0.451520,255,0,0
-1829.438232,652.542114,0.451530,255,0,0
-1829.838745,652.713745,0.451540,255,0,0
-1829.967529,652.770996,0.451550,255,0,0
-1829.967529,652.770996,0.451560,255,0,0
-1830.124878,652.885437,0.451570,255,0,0
-1830.124878,652.885437,0.451580,255,0,0
-1830.124878,652.885437,0.451590,255,0,0
-1830.511108,652.999878,0.451600,255,0,0
-1830.797241,653.114319,0.451610,255,0,0
-1830.911621,653.171509,0.451620,255,0,0
-1830.911621,653.171509,0.451630,255,0,0
-1831.312134,653.343201,0.451640,255,0,0
-1831.312134,653.343201,0.451650,255,0,0
-1831.469482,653.400391,0.451660,255,0,0
-1831.469482,653.400391,0.451670,255,0,0
-1831.741333,653.514893,0.451680,255,0,0
-1832.270630,653.572083,0.451690,255,0,0
-1832.399414,653.629272,0.451700,255,0,0
-1832.671143,653.743774,0.451710,255,0,0
-1833.214722,653.800964,0.451720,255,0,0
-1833.343506,653.915405,0.451730,255,0,0
-1833.615356,653.972656,0.451740,255,0,0
-1833.615356,653.972656,0.451750,255,0,0
-1834.173218,654.029846,0.451760,255,0,0
-1834.173218,654.029846,0.451770,255,0,0
-1834.416382,654.029846,0.451780,255,0,0
-1834.416382,654.029846,0.451790,255,0,0
-1834.573730,654.144287,0.451800,255,0,0
-1835.088745,654.258728,0.451810,255,0,0
-1835.088745,654.258728,0.451820,255,0,0
-1835.374878,654.373169,0.451830,255,0,0
-1835.374878,654.373169,0.451840,255,0,0
-1835.646606,654.373169,0.451850,255,0,0
-1835.646606,654.373169,0.451860,255,0,0
-1835.646606,654.373169,0.451870,255,0,0
-1836.161621,654.544800,0.451880,255,0,0
-1836.161621,654.544800,0.451890,255,0,0
-1836.318970,654.602051,0.451900,255,0,0
-1836.590820,654.659302,0.451910,255,0,0
-1836.991333,654.773682,0.451920,255,0,0
-1836.991333,654.773682,0.451930,255,0,0
-1837.120117,654.830933,0.451940,255,0,0
-1837.391846,654.945374,0.451950,255,0,0
-1837.391846,654.945374,0.451960,255,0,0
-1837.391846,654.945374,0.451970,255,0,0
-1837.792358,655.059814,0.451980,255,0,0
-1838.064209,655.174255,0.451990,255,0,0
-1838.192993,655.231445,0.452000,255,0,0
-1838.192993,655.231445,0.452010,255,0,0
-1838.736572,655.345947,0.452020,255,0,0
-1838.865234,655.460327,0.452030,255,0,0
-1838.865234,655.460327,0.452040,255,0,0
-1839.137085,655.460327,0.452050,255,0,0
-1839.694946,655.632019,0.452060,255,0,0
-1839.938110,655.689209,0.452070,255,0,0
-1839.938110,655.689209,0.452080,255,0,0
-1840.095459,655.689209,0.452090,255,0,0
-1840.095459,655.689209,0.452100,255,0,0
-1840.095459,655.689209,0.452110,255,0,0
-1840.624756,655.860901,0.452120,255,0,0
-1840.624756,655.860901,0.452130,255,0,0
-1840.896606,655.918091,0.452140,255,0,0
-1840.896606,655.918091,0.452150,255,0,0
-1841.168457,655.918091,0.452160,255,0,0
-1841.168457,655.918091,0.452170,255,0,0
-1841.168457,655.918091,0.452180,255,0,0
-1841.568970,655.975342,0.452190,255,0,0
-1841.568970,655.975342,0.452200,255,0,0
-1841.840698,655.975342,0.452210,255,0,0
-1841.840698,655.975342,0.452220,255,0,0
-1841.969482,656.089783,0.452230,255,0,0
-1841.969482,656.089783,0.452240,255,0,0
-1841.969482,656.089783,0.452250,255,0,0
-1842.369995,656.089783,0.452260,255,0,0
-1842.369995,656.089783,0.452270,255,0,0
-1842.641846,656.146973,0.452280,255,0,0
-1842.641846,656.146973,0.452290,255,0,0
-1842.913574,656.146973,0.452300,255,0,0
-1842.913574,656.146973,0.452310,255,0,0
-1842.913574,656.146973,0.452320,255,0,0
-1843.199707,656.261475,0.452330,255,0,0
-1843.199707,656.261475,0.452340,255,0,0
-1843.442871,656.261475,0.452350,255,0,0
-1843.442871,656.261475,0.452360,255,0,0
-1843.714722,656.261475,0.452370,255,0,0
-1843.714722,656.261475,0.452380,255,0,0
-1844.115234,656.261475,0.452390,255,0,0
-1844.387085,656.318665,0.452400,255,0,0
-1844.387085,656.318665,0.452410,255,0,0
-1844.544434,656.318665,0.452420,255,0,0
-1844.544434,656.318665,0.452430,255,0,0
-1845.073730,656.318665,0.452440,255,0,0
-1845.188110,656.318665,0.452450,255,0,0
-1845.474243,656.375854,0.452460,255,0,0
-1845.474243,656.375854,0.452470,255,0,0
-1846.017822,656.490356,0.452480,255,0,0
-1846.146606,656.490356,0.452490,255,0,0
-1846.146606,656.490356,0.452500,255,0,0
-1846.289673,656.547546,0.452510,255,0,0
-1846.289673,656.547546,0.452520,255,0,0
-1846.289673,656.547546,0.452530,255,0,0
-1846.690186,656.604736,0.452540,255,0,0
-1846.690186,656.604736,0.452550,255,0,0
-1846.961914,656.776428,0.452560,255,0,0
-1846.961914,656.776428,0.452570,255,0,0
-1847.090698,656.776428,0.452580,255,0,0
-1847.090698,656.776428,0.452590,255,0,0
-1847.491211,656.890869,0.452600,255,0,0
-1847.619995,657.005310,0.452610,255,0,0
-1847.891846,657.005310,0.452620,255,0,0
-1848.292358,657.177002,0.452630,255,0,0
-1848.292358,657.177002,0.452640,255,0,0
-1848.449707,657.291382,0.452650,255,0,0
-1848.449707,657.291382,0.452660,255,0,0
-1848.721558,657.291382,0.452670,255,0,0
-1848.721558,657.291382,0.452680,255,0,0
-1849.122070,657.405884,0.452690,255,0,0
-1849.393799,657.405884,0.452700,255,0,0
-1849.522583,657.520264,0.452710,255,0,0
-1849.522583,657.520264,0.452720,255,0,0
-1850.066162,657.520264,0.452730,255,0,0
-1850.323730,657.577515,0.452740,255,0,0
-1850.323730,657.577515,0.452750,255,0,0
-1850.466675,657.577515,0.452760,255,0,0
-1850.466675,657.577515,0.452770,255,0,0
-1850.995972,657.634766,0.452780,255,0,0
-1850.995972,657.634766,0.452790,255,0,0
-1851.139038,657.749146,0.452800,255,0,0
-1851.396606,657.749146,0.452810,255,0,0
-1851.940186,657.749146,0.452820,255,0,0
-1851.940186,657.749146,0.452830,255,0,0
-1852.068848,657.749146,0.452840,255,0,0
-1852.340698,657.806396,0.452850,255,0,0
-1852.340698,657.806396,0.452860,255,0,0
-1852.741211,657.920837,0.452870,255,0,0
-1852.741211,657.920837,0.452880,255,0,0
-1853.013062,657.978027,0.452890,255,0,0
-1853.013062,657.978027,0.452900,255,0,0
-1853.141846,658.035278,0.452910,255,0,0
-1853.141846,658.035278,0.452920,255,0,0
-1853.141846,658.035278,0.452930,255,0,0
-1853.570923,658.206909,0.452940,255,0,0
-1853.570923,658.206909,0.452950,255,0,0
-1853.699707,658.264160,0.452960,255,0,0
-1853.699707,658.264160,0.452970,255,0,0
-1853.814087,658.321411,0.452980,255,0,0
-1853.814087,658.321411,0.452990,255,0,0
-1853.814087,658.321411,0.453000,255,0,0
-1854.085938,658.607483,0.453010,255,0,0
-1854.085938,658.607483,0.453020,255,0,0
-1854.243286,658.664673,0.453030,255,0,0
