X,Y,Z,R,G,B
-2883.010010,-228.195190,0.011050,0,255,255
-2883.153076,-228.366852,0.011060,0,255,255
-2883.124268,-229.053497,0.011070,0,255,255
-2882.938477,-229.339600,0.011080,0,255,255
-2882.938477,-229.396820,0.011090,0,255,255
-2882.924072,-229.396820,0.011100,0,255,255
-2882.909668,-229.454041,0.011110,0,255,255
-2882.938477,-229.454041,0.011120,0,255,255
-2883.295898,-229.797363,0.011130,0,255,255
-2883.410400,-229.969025,0.011140,0,255,255
-2883.424805,-230.197906,0.011150,0,255,255
-2883.338867,-230.312347,0.011160,0,255,255
-2883.081543,-230.712891,0.011170,0,255,255
-2883.010010,-230.827332,0.011180,0,255,255
-2883.067139,-230.998993,0.011190,0,255,255
-2883.067139,-231.056213,0.011200,0,255,255
-2883.167236,-231.342316,0.011210,0,255,255
-2883.038574,-231.456757,0.011220,0,255,255
-2882.952637,-231.685638,0.011230,0,255,255
-2882.795410,-231.800079,0.011240,0,255,255
-2882.866943,-232.143402,0.011250,0,255,255
-2882.738037,-232.772827,0.011260,0,255,255
-2882.752441,-232.887268,0.011270,0,255,255
-2882.723877,-232.944489,0.011280,0,255,255
-2882.294678,-233.631134,0.011290,0,255,255
-2882.194580,-233.917236,0.011300,0,255,255
-2882.108643,-234.317780,0.011310,0,255,255
-2882.166016,-234.317780,0.011320,0,255,255
-2882.123047,-234.661102,0.011330,0,255,255
-2881.722412,-235.061646,0.011340,0,255,255
-2881.708252,-235.118866,0.011350,0,255,255
-2881.679443,-235.233307,0.011360,0,255,255
-2881.393555,-235.519409,0.011370,0,255,255
-2881.393555,-235.691071,0.011380,0,255,255
-2881.379150,-236.148834,0.011390,0,255,255
-2881.322021,-236.263275,0.011400,0,255,255
-2881.078613,-236.949921,0.011410,0,255,255
-2881.021484,-237.178802,0.011420,0,255,255
-2880.935547,-237.293243,0.011430,0,255,255
-2881.021484,-237.636566,0.011440,0,255,255
-2881.021484,-237.751007,0.011450,0,255,255
-2880.964355,-238.094330,0.011460,0,255,255
-2880.763916,-238.494873,0.011470,0,255,255
-2880.721191,-238.666534,0.011480,0,255,255
-2880.706787,-238.780975,0.011490,0,255,255
-2880.821289,-239.124298,0.011500,0,255,255
-2880.792725,-239.238739,0.011510,0,255,255
-2880.721191,-239.353180,0.011520,0,255,255
-2880.692383,-239.524841,0.011530,0,255,255
-2880.649658,-239.639282,0.011540,0,255,255
-2880.663818,-239.982605,0.011550,0,255,255
-2880.606689,-240.039825,0.011560,0,255,255
-2880.549316,-240.268707,0.011570,0,255,255
-2880.520752,-240.554810,0.011580,0,255,255
-2880.535156,-240.783691,0.011590,0,255,255
-2880.535156,-240.783691,0.011600,0,255,255
-2880.578125,-240.840912,0.011610,0,255,255
-2880.234619,-241.413116,0.011620,0,255,255
-2880.163086,-241.470337,0.011630,0,255,255
-2880.105957,-241.756439,0.011640,0,255,255
-2880.048828,-241.813660,0.011650,0,255,255
-2879.962891,-242.271423,0.011660,0,255,255
-2879.891357,-242.443085,0.011670,0,255,255
-2879.848389,-242.557526,0.011680,0,255,255
-2879.862793,-242.671967,0.011690,0,255,255
-2879.819824,-243.186951,0.011700,0,255,255
-2879.691162,-243.301392,0.011710,0,255,255
-2879.662598,-243.587494,0.011720,0,255,255
-2879.662598,-243.759155,0.011730,0,255,255
-2879.519531,-244.331360,0.011740,0,255,255
-2879.519531,-244.674683,0.011750,0,255,255
-2879.433594,-245.075226,0.011760,0,255,255
-2879.390625,-245.132446,0.011770,0,255,255
-2879.362061,-245.189667,0.011780,0,255,255
-2879.304932,-245.246887,0.011790,0,255,255
-2879.218994,-245.418549,0.011800,0,255,255
-2878.861328,-245.704651,0.011810,0,255,255
-2878.761230,-246.047974,0.011820,0,255,255
-2878.589600,-246.448517,0.011830,0,255,255
-2878.289307,-246.963501,0.011840,0,255,255
-2878.289307,-247.192383,0.011850,0,255,255
-2878.231934,-247.535706,0.011860,0,255,255
-2878.117676,-247.764587,0.011870,0,255,255
-2877.845703,-248.222351,0.011880,0,255,255
-2877.802734,-248.622894,0.011890,0,255,255
-2877.745605,-248.966217,0.011900,0,255,255
-2877.717041,-249.252319,0.011910,0,255,255
-2877.616943,-249.366760,0.011920,0,255,255
-2877.516846,-249.538422,0.011930,0,255,255
-2877.459473,-249.710083,0.011940,0,255,255
-2877.402344,-249.938965,0.011950,0,255,255
-2877.402344,-249.996185,0.011960,0,255,255
-2877.373779,-250.167847,0.011970,0,255,255
-2877.273438,-250.339508,0.011980,0,255,255
-2877.244873,-250.511169,0.011990,0,255,255
-2877.101807,-250.740051,0.012000,0,255,255
-2876.973145,-250.911713,0.012010,0,255,255
-2876.687012,-251.197815,0.012020,0,255,255
-2876.415283,-251.426697,0.012030,0,255,255
-2876.315186,-251.541138,0.012040,0,255,255
-2875.957520,-251.827240,0.012050,0,255,255
-2875.671387,-252.113342,0.012060,0,255,255
-2875.642822,-252.170563,0.012070,0,255,255
-2875.614258,-252.285004,0.012080,0,255,255
-2875.513916,-252.513885,0.012090,0,255,255
-2875.356689,-252.685547,0.012100,0,255,255
-2875.256592,-252.742767,0.012110,0,255,255
-2875.099121,-253.086090,0.012120,0,255,255
-2874.870361,-253.372192,0.012130,0,255,255
-2874.612793,-253.429413,0.012140,0,255,255
-2874.469727,-253.601074,0.012150,0,255,255
-2874.341064,-253.715515,0.012160,0,255,255
-2874.140625,-253.829956,0.012170,0,255,255
-2873.911865,-254.001617,0.012180,0,255,255
-2873.668701,-254.287720,0.012190,0,255,255
-2873.396973,-254.459381,0.012200,0,255,255
-2873.125000,-254.802704,0.012210,0,255,255
-2872.910400,-254.917145,0.012220,0,255,255
-2872.767334,-255.088806,0.012230,0,255,255
-2872.595703,-255.146027,0.012240,0,255,255
-2872.209473,-255.432129,0.012250,0,255,255
-2872.009277,-255.603790,0.012260,0,255,255
-2871.723145,-255.889893,0.012270,0,255,255
-2871.522949,-256.175995,0.012280,0,255,255
-2871.222412,-256.347656,0.012290,0,255,255
-2871.036621,-256.576538,0.012300,0,255,255
-2870.979248,-256.805420,0.012310,0,255,255
-2870.922119,-256.862640,0.012320,0,255,255
-2870.621582,-257.263184,0.012330,0,255,255
-2870.492920,-257.320404,0.012340,0,255,255
-2870.464355,-257.434845,0.012350,0,255,255
-2870.264160,-257.606506,0.012360,0,255,255
-2870.264160,-257.720947,0.012370,0,255,255
-2870.149658,-257.892609,0.012380,0,255,255
-2870.092285,-258.007050,0.012390,0,255,255
-2869.963623,-258.293152,0.012400,0,255,255
-2869.620361,-258.522034,0.012410,0,255,255
-2869.477295,-258.808136,0.012420,0,255,255
-2869.291260,-259.094238,0.012430,0,255,255
-2869.091064,-259.380341,0.012440,0,255,255
-2868.933594,-259.552002,0.012450,0,255,255
-2868.633301,-259.723663,0.012460,0,255,255
-2868.490234,-259.838104,0.012470,0,255,255
-2868.347168,-259.952545,0.012480,0,255,255
-2868.318604,-260.124207,0.012490,0,255,255
-2868.146973,-260.353088,0.012500,0,255,255
-2867.860840,-260.581970,0.012510,0,255,255
-2867.760742,-260.696411,0.012520,0,255,255
-2867.488770,-260.925293,0.012530,0,255,255
-2867.231445,-261.039734,0.012540,0,255,255
-2867.102539,-261.211395,0.012550,0,255,255
-2866.916748,-261.325836,0.012560,0,255,255
-2866.602051,-261.611938,0.012570,0,255,255
-2866.373047,-261.898041,0.012580,0,255,255
-2866.258545,-262.012482,0.012590,0,255,255
-2866.015381,-262.069702,0.012600,0,255,255
-2865.872314,-262.069702,0.012610,0,255,255
-2865.443115,-262.355804,0.012620,0,255,255
-2865.242920,-262.470245,0.012630,0,255,255
-2865.157227,-262.527466,0.012640,0,255,255
-2864.813721,-262.699127,0.012650,0,255,255
-2864.642090,-263.042450,0.012660,0,255,255
-2864.642090,-263.156891,0.012670,0,255,255
-2864.212891,-263.442993,0.012680,0,255,255
-2864.098633,-263.557434,0.012690,0,255,255
-2863.683594,-263.900757,0.012700,0,255,255
-2863.383301,-264.129639,0.012710,0,255,255
-2863.068604,-264.530182,0.012720,0,255,255
-2863.068604,-264.930725,0.012730,0,255,255
-2862.968506,-265.159607,0.012740,0,255,255
-2862.839600,-265.274048,0.012750,0,255,255
-2862.467773,-265.560150,0.012760,0,255,255
-2862.310303,-265.960693,0.012770,0,255,255
-2862.067139,-266.361237,0.012780,0,255,255
-2861.866943,-266.532898,0.012790,0,255,255
-2861.638184,-266.819000,0.012800,0,255,255
-2861.495117,-267.047882,0.012810,0,255,255
-2861.280518,-267.105103,0.012820,0,255,255
-2861.065918,-267.391205,0.012830,0,255,255
-2860.894287,-267.448425,0.012840,0,255,255
-2860.751221,-267.562866,0.012850,0,255,255
-2860.622314,-267.734528,0.012860,0,255,255
-2860.393555,-268.077850,0.012870,0,255,255
-2859.892822,-268.592834,0.012880,0,255,255
-2859.992920,-268.821716,0.012890,0,255,255
-2859.706787,-269.050598,0.012900,0,255,255
-2859.478027,-269.336700,0.012910,0,255,255
-2859.249023,-269.565582,0.012920,0,255,255
-2859.120361,-269.680023,0.012930,0,255,255
-2858.948730,-269.794464,0.012940,0,255,255
-2858.791260,-269.966125,0.012950,0,255,255
-2858.648193,-270.309448,0.012960,0,255,255
-2858.290771,-270.481110,0.012970,0,255,255
-2858.018799,-270.767212,0.012980,0,255,255
-2857.790039,-270.881653,0.012990,0,255,255
-2857.689941,-271.053314,0.013000,0,255,255
-2857.518311,-271.167755,0.013010,0,255,255
-2857.389404,-271.339417,0.013020,0,255,255
-2857.232178,-271.453857,0.013030,0,255,255
-2857.074707,-271.625519,0.013040,0,255,255
-2856.974609,-271.797180,0.013050,0,255,255
-2856.874512,-271.911621,0.013060,0,255,255
-2856.931641,-272.254944,0.013070,0,255,255
-2856.817139,-272.483826,0.013080,0,255,255
-2856.774414,-272.655487,0.013090,0,255,255
-2856.416748,-272.827148,0.013100,0,255,255
-2856.044678,-272.941589,0.013110,0,255,255
-2855.572754,-273.170471,0.013120,0,255,255
-2855.443848,-273.399353,0.013130,0,255,255
-2855.157959,-273.628235,0.013140,0,255,255
-2854.914551,-273.742676,0.013150,0,255,255
-2854.685791,-273.799896,0.013160,0,255,255
-2854.385254,-274.028778,0.013170,0,255,255
-2854.113525,-274.314880,0.013180,0,255,255
-2853.941895,-274.486542,0.013190,0,255,255
-2853.698730,-274.772644,0.013200,0,255,255
-2853.398438,-274.829865,0.013210,0,255,255
-2853.269531,-275.058746,0.013220,0,255,255
-2852.940674,-275.115967,0.013230,0,255,255
-2852.668701,-275.344849,0.013240,0,255,255
-2852.497070,-275.402069,0.013250,0,255,255
-2852.411377,-275.516510,0.013260,0,255,255
-2852.311035,-275.573730,0.013270,0,255,255
-2852.053711,-275.917053,0.013280,0,255,255
-2851.767578,-276.145935,0.013290,0,255,255
-2851.653076,-276.260376,0.013300,0,255,255
-2851.467041,-276.489258,0.013310,0,255,255
-2851.238281,-276.546478,0.013320,0,255,255
-2851.195312,-276.603699,0.013330,0,255,255
-2850.594482,-276.947021,0.013340,0,255,255
-2850.465820,-277.004242,0.013350,0,255,255
-2850.336914,-277.233124,0.013360,0,255,255
-2850.093750,-277.347565,0.013370,0,255,255
-2849.864990,-277.519226,0.013380,0,255,255
-2849.607422,-277.690887,0.013390,0,255,255
-2849.492920,-277.919769,0.013400,0,255,255
-2849.149658,-278.091431,0.013410,0,255,255
-2848.892090,-278.320312,0.013420,0,255,255
-2848.663330,-278.434753,0.013430,0,255,255
-2848.434570,-278.720856,0.013440,0,255,255
-2848.291504,-278.892517,0.013450,0,255,255
-2848.105469,-279.006958,0.013460,0,255,255
-2848.005371,-279.121399,0.013470,0,255,255
-2847.847900,-279.350281,0.013480,0,255,255
-2847.647705,-279.407501,0.013490,0,255,255
-2847.547607,-279.521942,0.013500,0,255,255
-2847.418701,-279.693604,0.013510,0,255,255
-2847.347168,-279.750824,0.013520,0,255,255
-2847.161377,-279.808044,0.013530,0,255,255
-2847.046875,-279.979706,0.013540,0,255,255
-2846.946777,-280.094147,0.013550,0,255,255
-2846.975342,-280.265808,0.013560,0,255,255
-2846.817871,-280.494690,0.013570,0,255,255
-2846.574707,-280.780792,0.013580,0,255,255
-2846.188477,-280.952454,0.013590,0,255,255
-2846.045410,-281.124115,0.013600,0,255,255
-2845.916748,-281.352997,0.013610,0,255,255
-2845.873779,-281.467438,0.013620,0,255,255
-2845.630615,-281.581879,0.013630,0,255,255
-2845.401855,-281.696320,0.013640,0,255,255
-2845.272949,-281.925201,0.013650,0,255,255
-2845.387451,-282.039642,0.013660,0,255,255
-2845.129883,-282.440186,0.013670,0,255,255
-2845.072754,-282.669067,0.013680,0,255,255
-2844.944092,-282.783508,0.013690,0,255,255
-2844.886719,-283.012390,0.013700,0,255,255
-2844.872559,-283.184052,0.013710,0,255,255
-2844.600586,-283.298492,0.013720,0,255,255
-2844.385986,-283.355713,0.013730,0,255,255
-2844.285889,-283.412933,0.013740,0,255,255
-2844.142822,-283.527374,0.013750,0,255,255
-2843.942627,-283.756256,0.013760,0,255,255
-2843.742432,-283.870697,0.013770,0,255,255
-2843.699463,-283.985138,0.013780,0,255,255
-2843.642334,-284.042358,0.013790,0,255,255
-2843.642334,-284.042358,0.013800,0,255,255
-2843.513428,-284.099579,0.013810,0,255,255
-2843.441895,-284.156799,0.013820,0,255,255
-2843.284668,-284.385681,0.013830,0,255,255
-2843.141602,-284.442902,0.013840,0,255,255
-2842.798340,-284.843445,0.013850,0,255,255
-2842.669434,-284.957886,0.013860,0,255,255
-2842.526367,-285.186768,0.013870,0,255,255
-2842.512207,-285.301208,0.013880,0,255,255
-2842.440674,-285.472870,0.013890,0,255,255
-2842.254639,-285.587311,0.013900,0,255,255
-2842.083008,-285.701752,0.013910,0,255,255
-2842.068604,-285.644531,0.013920,0,255,255
-2277.760498,-175.094604,0.013930,0,255,255
-2277.789062,-175.037384,0.013940,0,255,255
-2280.177979,-174.293518,0.013950,0,255,255
-2280.049316,-174.694061,0.013960,0,255,255
-2280.306885,-173.377991,0.013970,0,255,255
-2280.836182,-171.890259,0.013980,0,255,255
-2280.235352,-171.318054,0.013990,0,255,255
-2280.235352,-171.318054,0.014000,0,255,255
-2279.834717,-171.604156,0.014010,0,255,255
-2280.449951,-170.345306,0.014020,0,255,255
-2280.063721,-169.887543,0.014030,0,255,255
-2279.777588,-169.372559,0.014040,0,255,255
-2279.863281,-169.086456,0.014050,0,255,255
-2279.720215,-168.800354,0.014060,0,255,255
-2279.706055,-168.800354,0.014070,0,255,255
-2279.362793,-168.514252,0.014080,0,255,255
-2278.947754,-167.140961,0.014090,0,255,255
-2278.890625,-165.653229,0.014100,0,255,255
-2279.047852,-163.879395,0.014110,0,255,255
-2279.591553,-161.705017,0.014120,0,255,255
-2280.778809,-158.843994,0.014130,0,255,255
-2279.763184,-159.358978,0.014140,0,255,255
-2278.633057,-160.789490,0.014150,0,255,255
-2278.475830,-161.018372,0.014160,0,255,255
-2278.389893,-161.075592,0.014170,0,255,255
-2278.175293,-162.391663,0.014180,0,255,255
-2277.989502,-162.506104,0.014190,0,255,255
-2277.502930,-163.764954,0.014200,0,255,255
-2276.844971,-164.508820,0.014210,0,255,255
-2276.215576,-165.882111,0.014220,0,255,255
-2276.272705,-166.225433,0.014230,0,255,255
-2275.543213,-167.312622,0.014240,0,255,255
-2275.486084,-167.484283,0.014250,0,255,255
-2275.142578,-168.571472,0.014260,0,255,255
-2274.827881,-168.972015,0.014270,0,255,255
-2274.384521,-169.544220,0.014280,0,255,255
-2274.184326,-170.001984,0.014290,0,255,255
-2273.483398,-170.688629,0.014300,0,255,255
-2273.411865,-171.031952,0.014310,0,255,255
-2273.111328,-171.489716,0.014320,0,255,255
-2272.939697,-171.718597,0.014330,0,255,255
-2272.553467,-172.119141,0.014340,0,255,255
-2272.124268,-172.863007,0.014350,0,255,255
-2271.666504,-173.377991,0.014360,0,255,255
-2271.180176,-174.407959,0.014370,0,255,255
-2271.108643,-175.437927,0.014380,0,255,255
-2271.022705,-175.552368,0.014390,0,255,255
-2270.507812,-176.181793,0.014400,0,255,255
-2270.464844,-176.296234,0.014410,0,255,255
-2270.307617,-177.669525,0.014420,0,255,255
-2268.876953,-178.871155,0.014430,0,255,255
-2268.762695,-179.042816,0.014440,0,255,255
-2268.433594,-179.443359,0.014450,0,255,255
-2267.704102,-180.473328,0.014460,0,255,255
-2267.389404,-180.759430,0.014470,0,255,255
-2267.031738,-181.446075,0.014480,0,255,255
-2266.702637,-181.846619,0.014490,0,255,255
-2266.545410,-182.132721,0.014500,0,255,255
-2266.416504,-182.304382,0.014510,0,255,255
-2266.273438,-182.418823,0.014520,0,255,255
-2265.973145,-182.762146,0.014530,0,255,255
-2265.572510,-183.277130,0.014540,0,255,255
-2265.043213,-183.677673,0.014550,0,255,255
-2264.628418,-184.020996,0.014560,0,255,255
-2264.513916,-184.307098,0.014570,0,255,255
-2264.428223,-184.478760,0.014580,0,255,255
-2264.385254,-184.764862,0.014590,0,255,255
-2264.185059,-185.222626,0.014600,0,255,255
-2264.013184,-185.394287,0.014610,0,255,255
-2263.898926,-185.508728,0.014620,0,255,255
-2263.812988,-185.794830,0.014630,0,255,255
-2263.383789,-186.252594,0.014640,0,255,255
-2263.283691,-186.710358,0.014650,0,255,255
-2263.011963,-187.225342,0.014660,0,255,255
-2263.011963,-187.339783,0.014670,0,255,255
-2262.883301,-187.511444,0.014680,0,255,255
-2262.854492,-187.683105,0.014690,0,255,255
-2262.768799,-187.740326,0.014700,0,255,255
-2262.554199,-188.083649,0.014710,0,255,255
-2262.067871,-189.399719,0.014720,0,255,255
-2261.824707,-189.685822,0.014730,0,255,255
-2261.724365,-189.800262,0.014740,0,255,255
-2261.710205,-190.029144,0.014750,0,255,255
-2261.223877,-190.658569,0.014760,0,255,255
-2261.195068,-190.830231,0.014770,0,255,255
-2261.166504,-190.887451,0.014780,0,255,255
-2261.094971,-191.059113,0.014790,0,255,255
-2261.037842,-191.059113,0.014800,0,255,255
-2260.894775,-191.402435,0.014810,0,255,255
-2260.766113,-191.802979,0.014820,0,255,255
-2260.580078,-192.260742,0.014830,0,255,255
-2260.465576,-192.489624,0.014840,0,255,255
-2260.422607,-192.661285,0.014850,0,255,255
-2260.379883,-192.718506,0.014860,0,255,255
-2260.179443,-193.004608,0.014870,0,255,255
-2260.107910,-193.176270,0.014880,0,255,255
-2259.807617,-193.576813,0.014890,0,255,255
-2259.335449,-194.091797,0.014900,0,255,255
-2259.120850,-194.320679,0.014910,0,255,255
-2258.863525,-194.606781,0.014920,0,255,255
-2258.791992,-194.835663,0.014930,0,255,255
-2258.520020,-195.064545,0.014940,0,255,255
-2258.462891,-195.064545,0.014950,0,255,255
-2258.191162,-195.236206,0.014960,0,255,255
-2258.162598,-195.407867,0.014970,0,255,255
-2258.205322,-196.037292,0.014980,0,255,255
-2258.076660,-196.208954,0.014990,0,255,255
-2258.005127,-196.437836,0.015000,0,255,255
-2257.890625,-196.609497,0.015010,0,255,255
-2257.804932,-196.723938,0.015020,0,255,255
-2257.747559,-196.952820,0.015030,0,255,255
-2257.475830,-197.238922,0.015040,0,255,255
-2257.289795,-197.639465,0.015050,0,255,255
-2257.161133,-197.696686,0.015060,0,255,255
-2256.846436,-198.040009,0.015070,0,255,255
-2256.746338,-198.211670,0.015080,0,255,255
-2256.731934,-198.326111,0.015090,0,255,255
-2256.403076,-198.612213,0.015100,0,255,255
-2256.231201,-198.898315,0.015110,0,255,255
-2255.358643,-199.584961,0.015120,0,255,255
-2254.900879,-200.099945,0.015130,0,255,255
-2254.686279,-200.500488,0.015140,0,255,255
-2254.786377,-200.843811,0.015150,0,255,255
-2254.457520,-201.358795,0.015160,0,255,255
-2254.529053,-201.530457,0.015170,0,255,255
-2254.300049,-201.702118,0.015180,0,255,255
-2253.885254,-202.045441,0.015190,0,255,255
-2254.071289,-202.045441,0.015200,0,255,255
-2253.899658,-202.445984,0.015210,0,255,255
-2253.541992,-202.617645,0.015220,0,255,255
-2253.284424,-203.132629,0.015230,0,255,255
-2252.912598,-203.475952,0.015240,0,255,255
-2252.755127,-203.647614,0.015250,0,255,255
-2252.726562,-203.647614,0.015260,0,255,255
-2252.812500,-203.647614,0.015270,0,255,255
-2252.783691,-203.762054,0.015280,0,255,255
-2252.640625,-203.933716,0.015290,0,255,255
-2252.569092,-204.162598,0.015300,0,255,255
-2252.426270,-204.448700,0.015310,0,255,255
-2252.254395,-204.620361,0.015320,0,255,255
-2251.868164,-204.963684,0.015330,0,255,255
-2251.925537,-205.192566,0.015340,0,255,255
-2251.811035,-205.307007,0.015350,0,255,255
-2251.753906,-205.478668,0.015360,0,255,255
-2251.467773,-205.707550,0.015370,0,255,255
-2251.081543,-206.108093,0.015380,0,255,255
-2250.666504,-206.451416,0.015390,0,255,255
-2250.595215,-206.565857,0.015400,0,255,255
-2250.566406,-206.623077,0.015410,0,255,255
-2250.480713,-206.851959,0.015420,0,255,255
-2250.280273,-207.138062,0.015430,0,255,255
-2250.194580,-207.424164,0.015440,0,255,255
-2250.137207,-207.424164,0.015450,0,255,255
-2250.123047,-207.481384,0.015460,0,255,255
-2249.808350,-207.595825,0.015470,0,255,255
-2249.708252,-207.881927,0.015480,0,255,255
-2249.379150,-208.168030,0.015490,0,255,255
-2249.107422,-208.511353,0.015500,0,255,255
-2248.849854,-208.568573,0.015510,0,255,255
-2248.749756,-208.625793,0.015520,0,255,255
-2248.492188,-208.911896,0.015530,0,255,255
-2247.905762,-209.369659,0.015540,0,255,255
-2247.462158,-209.884644,0.015550,0,255,255
-2247.104736,-210.227966,0.015560,0,255,255
-2246.532471,-210.571289,0.015570,0,255,255
-2246.231934,-210.971832,0.015580,0,255,255
-2245.788574,-211.315155,0.015590,0,255,255
-2245.387939,-211.544037,0.015600,0,255,255
-2245.030518,-211.772919,0.015610,0,255,255
-2244.629883,-212.001801,0.015620,0,255,255
-2244.343750,-212.116241,0.015630,0,255,255
-2243.986084,-212.459564,0.015640,0,255,255
-2243.556885,-212.688446,0.015650,0,255,255
-2243.328125,-212.745667,0.015660,0,255,255
-2243.041992,-212.860107,0.015670,0,255,255
-2242.484131,-213.546753,0.015680,0,255,255
-2242.212402,-213.603973,0.015690,0,255,255
-2241.840332,-213.775635,0.015700,0,255,255
-2241.582764,-213.832855,0.015710,0,255,255
-2241.167969,-214.233398,0.015720,0,255,255
-2240.595703,-214.862823,0.015730,0,255,255
-2240.066406,-215.263367,0.015740,0,255,255
-2239.894775,-215.377808,0.015750,0,255,255
-2239.823242,-215.549469,0.015760,0,255,255
-2239.794678,-215.663910,0.015770,0,255,255
-2239.394287,-215.950012,0.015780,0,255,255
-2238.893555,-216.350555,0.015790,0,255,255
-2238.693359,-216.693878,0.015800,0,255,255
-2238.621826,-216.751099,0.015810,0,255,255
-2238.321289,-217.037201,0.015820,0,255,255
-2237.763428,-217.380524,0.015830,0,255,255
-2237.219727,-217.609406,0.015840,0,255,255
-2236.947998,-217.838287,0.015850,0,255,255
-2236.733398,-217.952728,0.015860,0,255,255
-2236.747803,-218.067169,0.015870,0,255,255
-2236.261475,-218.296051,0.015880,0,255,255
-2235.817871,-218.582153,0.015890,0,255,255
-2235.403076,-218.925476,0.015900,0,255,255
-2234.973877,-219.211578,0.015910,0,255,255
-2234.730713,-219.326019,0.015920,0,255,255
-2234.573242,-219.497681,0.015930,0,255,255
-2234.416016,-219.612122,0.015940,0,255,255
-2234.187012,-219.726562,0.015950,0,255,255
-2234.015381,-219.955444,0.015960,0,255,255
-2233.858154,-220.184326,0.015970,0,255,255
-2233.471924,-220.470428,0.015980,0,255,255
-2233.057129,-220.699310,0.015990,0,255,255
-2232.484863,-220.928192,0.016000,0,255,255
-2232.227295,-221.271515,0.016010,0,255,255
-2232.127197,-221.385956,0.016020,0,255,255
-2231.898193,-221.672058,0.016030,0,255,255
-2231.554932,-222.015381,0.016040,0,255,255
-2231.226074,-222.358704,0.016050,0,255,255
-2231.025635,-222.530365,0.016060,0,255,255
-2230.210205,-223.045349,0.016070,0,255,255
-2229.924316,-223.102570,0.016080,0,255,255
-2229.695312,-223.331451,0.016090,0,255,255
-2229.652344,-223.617554,0.016100,0,255,255
-2229.766846,-223.903656,0.016110,0,255,255
-2229.781250,-224.018097,0.016120,0,255,255
-2229.809814,-224.189758,0.016130,0,255,255
-2229.738281,-224.246979,0.016140,0,255,255
-2229.695312,-224.304199,0.016150,0,255,255
-1326.942383,-22.430420,0.016160,0,255,255
-1326.913818,-22.487640,0.016170,0,255,255
-1326.899536,-22.487640,0.016180,0,255,255
-1326.870972,-22.544861,0.016190,0,255,255
-1325.340332,-25.577545,0.016200,0,255,255
-1324.739502,-26.493073,0.016210,0,255,255
-1324.067139,-27.408600,0.016220,0,255,255
-1323.938354,-27.523041,0.016230,0,255,255
-1323.223145,-28.438568,0.016240,0,255,255
-1322.894043,-29.239655,0.016250,0,255,255
-1322.550781,-29.869080,0.016260,0,255,255
-1322.135986,-30.555725,0.016270,0,255,255
-1321.921387,-31.414032,0.016280,0,255,255
-1321.392090,-32.444000,0.016290,0,255,255
-1320.691162,-33.187866,0.016300,0,255,255
-1321.091675,-33.531189,0.016310,0,255,255
-1321.005859,-33.931732,0.016320,0,255,255
-1320.333496,-34.160614,0.016330,0,255,255
-1319.675415,-34.732819,0.016340,0,255,255
-1319.031738,-35.305023,0.016350,0,255,255
-1318.845703,-35.533905,0.016360,0,255,255
-1318.473877,-35.820007,0.016370,0,255,255
-1318.244873,-35.762787,0.016380,0,255,255
-1318.144775,-36.449432,0.016390,0,255,255
-1318.073242,-36.563873,0.016400,0,255,255
-1317.987427,-36.849976,0.016410,0,255,255
-1317.744263,-37.136078,0.016420,0,255,255
-1317.644165,-37.307739,0.016430,0,255,255
-1317.400879,-37.422180,0.016440,0,255,255
-1317.315063,-37.479401,0.016450,0,255,255
-1317.043335,-37.651062,0.016460,0,255,255
-1316.885986,-37.822723,0.016470,0,255,255
-1316.814453,-38.337708,0.016480,0,255,255
-1316.714233,-38.452148,0.016490,0,255,255
-1316.714233,-38.909912,0.016500,0,255,255
-1316.313721,-39.196014,0.016510,0,255,255
-1316.142090,-39.310455,0.016520,0,255,255
-1316.041992,-39.482117,0.016530,0,255,255
-1315.813110,-39.997101,0.016540,0,255,255
-1315.212280,-40.340424,0.016550,0,255,255
-1315.097778,-40.855408,0.016560,0,255,255
-1314.940430,-41.084290,0.016570,0,255,255
-1314.511353,-41.198730,0.016580,0,255,255
-1314.167969,-41.313171,0.016590,0,255,255
-1313.996338,-41.427612,0.016600,0,255,255
-1313.710205,-41.542053,0.016610,0,255,255
-1313.638672,-41.656494,0.016620,0,255,255
-1313.567139,-41.942596,0.016630,0,255,255
-1313.595825,-42.057037,0.016640,0,255,255
-1313.538574,-42.686462,0.016650,0,255,255
-1313.266724,-42.972565,0.016660,0,255,255
-1313.195190,-43.544769,0.016670,0,255,255
-1312.894775,-44.116974,0.016680,0,255,255
-1312.952026,-44.460297,0.016690,0,255,255
-1312.694580,-45.204163,0.016700,0,255,255
-1312.637329,-45.318604,0.016710,0,255,255
-1312.608765,-45.547485,0.016720,0,255,255
-1312.808960,-46.005249,0.016730,0,255,255
-1312.851929,-46.176910,0.016740,0,255,255
-1312.665894,-46.691895,0.016750,0,255,255
-1312.594360,-46.806335,0.016760,0,255,255
-1312.451416,-46.920776,0.016770,0,255,255
-1312.394165,-47.264099,0.016780,0,255,255
-1312.365479,-47.836304,0.016790,0,255,255
-1312.193848,-47.950745,0.016800,0,255,255
-1311.936401,-48.694611,0.016810,0,255,255
-1311.879150,-48.923492,0.016820,0,255,255
-1311.721802,-49.095154,0.016830,0,255,255
-1311.693237,-49.266815,0.016840,0,255,255
-1311.607422,-49.324036,0.016850,0,255,255
-1311.407104,-49.495697,0.016860,0,255,255
-1311.106689,-49.724579,0.016870,0,255,255
-1310.920654,-50.010681,0.016880,0,255,255
-1310.863525,-50.182343,0.016890,0,255,255
-1310.963623,-50.525665,0.016900,0,255,255
-1310.791992,-50.811768,0.016910,0,255,255
-1310.706177,-50.926208,0.016920,0,255,255
-1310.605957,-50.983429,0.016930,0,255,255
-1310.491577,-51.212311,0.016940,0,255,255
-1310.520142,-51.383972,0.016950,0,255,255
-1310.420044,-51.555634,0.016960,0,255,255
-1310.291260,-51.956177,0.016970,0,255,255
-1310.048096,-52.471161,0.016980,0,255,255
-1309.604614,-52.700043,0.016990,0,255,255
-1309.390015,-53.157806,0.017000,0,255,255
-1309.304199,-53.386688,0.017010,0,255,255
-1308.917969,-53.672791,0.017020,0,255,255
-1308.588989,-53.958893,0.017030,0,255,255
-1308.217041,-54.416656,0.017040,0,255,255
-1308.045410,-54.531097,0.017050,0,255,255
-1307.744995,-54.817200,0.017060,0,255,255
-1307.416016,-54.931641,0.017070,0,255,255
-1307.072632,-55.274963,0.017080,0,255,255
-1306.643433,-55.503845,0.017090,0,255,255
-1306.242920,-55.847168,0.017100,0,255,255
-1305.713623,-56.362152,0.017110,0,255,255
-1305.370361,-56.762695,0.017120,0,255,255
-1305.026978,-57.048798,0.017130,0,255,255
-1304.669434,-57.678223,0.017140,0,255,255
-1304.068604,-58.021545,0.017150,0,255,255
-1303.825439,-58.250427,0.017160,0,255,255
-1303.610840,-58.593750,0.017170,0,255,255
-1303.167358,-58.879852,0.017180,0,255,255
-1302.623779,-59.280396,0.017190,0,255,255
-1302.051514,-59.509277,0.017200,0,255,255
-1301.765381,-59.680939,0.017210,0,255,255
-1301.436401,-59.967041,0.017220,0,255,255
-1301.164673,-60.253143,0.017230,0,255,255
-1300.935791,-60.310364,0.017240,0,255,255
-1300.764038,-60.482025,0.017250,0,255,255
-1300.692505,-60.653687,0.017260,0,255,255
-1300.463623,-61.683655,0.017270,0,255,255
-1299.719849,-61.683655,0.017280,0,255,255
-1299.347900,-62.026978,0.017290,0,255,255
-1299.119019,-62.484741,0.017300,0,255,255
-1298.718506,-62.770844,0.017310,0,255,255
-1298.246338,-63.457489,0.017320,0,255,255
-1298.146240,-63.858032,0.017330,0,255,255
-1297.545410,-64.487457,0.017340,0,255,255
-1297.416748,-64.716339,0.017350,0,255,255
-1297.402344,-65.002441,0.017360,0,255,255
-1297.144897,-65.402985,0.017370,0,255,255
-1296.787231,-66.089630,0.017380,0,255,255
-1296.558350,-66.318512,0.017390,0,255,255
-1296.243652,-66.947937,0.017400,0,255,255
-1295.900391,-67.291260,0.017410,0,255,255
-1295.471191,-67.462921,0.017420,0,255,255
-1295.199341,-67.691803,0.017430,0,255,255
-1294.884644,-68.149567,0.017440,0,255,255
-1294.398315,-68.550110,0.017450,0,255,255
-1294.298218,-68.664551,0.017460,0,255,255
-1293.869019,-69.007874,0.017470,0,255,255
-1293.625854,-69.637299,0.017480,0,255,255
-1293.439819,-69.808960,0.017490,0,255,255
-1293.382690,-70.037842,0.017500,0,255,255
-1293.025024,-70.495605,0.017510,0,255,255
-1292.839111,-70.724487,0.017520,0,255,255
-1292.495728,-71.239471,0.017530,0,255,255
-1292.338379,-71.868896,0.017540,0,255,255
-1292.138062,-71.983337,0.017550,0,255,255
-1292.095215,-72.212219,0.017560,0,255,255
-1291.866333,-72.212219,0.017570,0,255,255
-1291.637451,-72.269440,0.017580,0,255,255
-1291.322754,-72.727203,0.017590,0,255,255
-1291.050903,-72.956085,0.017600,0,255,255
-1290.993652,-73.127747,0.017610,0,255,255
-1290.707642,-73.471069,0.017620,0,255,255
-1290.535889,-73.528290,0.017630,0,255,255
-1290.493042,-73.642731,0.017640,0,255,255
-1290.421509,-73.413849,0.017650,0,255,255
-1290.335693,-73.413849,0.017660,0,255,255
-1290.192627,-73.699951,0.017670,0,255,255
-1290.006592,-73.757172,0.017680,0,255,255
-1289.892212,-73.986053,0.017690,0,255,255
-1289.863525,-74.100494,0.017700,0,255,255
-1289.649048,-74.157715,0.017710,0,255,255
-1289.477295,-74.157715,0.017720,0,255,255
-1289.319946,-74.214935,0.017730,0,255,255
-1288.990967,-74.386597,0.017740,0,255,255
-1288.819336,-74.558258,0.017750,0,255,255
-1288.547485,-74.672699,0.017760,0,255,255
-1288.175537,-74.844360,0.017770,0,255,255
-1287.989624,-75.073242,0.017780,0,255,255
-1287.760742,-75.187683,0.017790,0,255,255
-1287.817993,-75.359344,0.017800,0,255,255
-1287.531860,-75.473785,0.017810,0,255,255
-1287.345947,-75.588226,0.017820,0,255,255
-1287.045532,-75.759888,0.017830,0,255,255
-1286.945312,-75.874329,0.017840,0,255,255
-1286.873779,-75.931549,0.017850,0,255,255
-1286.945312,-76.160431,0.017860,0,255,255
-1286.816650,-76.332092,0.017870,0,255,255
-1286.745117,-76.560974,0.017880,0,255,255
-1286.687866,-76.675415,0.017890,0,255,255
-1286.516235,-76.675415,0.017900,0,255,255
-1286.373169,-76.732635,0.017910,0,255,255
-1286.272949,-76.789856,0.017920,0,255,255
-745.611206,17.337799,0.017930,0,255,255
-745.582581,17.337799,0.017940,0,255,255
-745.611206,18.997192,0.017950,0,255,255
-745.611206,18.997192,0.017960,0,255,255
-745.668396,22.945404,0.017970,0,255,255
-745.682739,22.945404,0.017980,0,255,255
-746.326416,24.032593,0.017990,0,255,255
-746.541016,24.089813,0.018000,0,255,255
-746.569641,24.147034,0.018010,0,255,255
-746.898682,23.174286,0.018020,0,255,255
-746.884338,23.002625,0.018030,0,255,255
-746.111877,21.972656,0.018040,0,255,255
-746.111877,21.972656,0.018050,0,255,255
-746.111877,21.114349,0.018060,0,255,255
-746.097534,20.771027,0.018070,0,255,255
-746.083252,20.713806,0.018080,0,255,255
-746.183411,20.027161,0.018090,0,255,255
-746.083252,19.683838,0.018100,0,255,255
-746.083252,19.569397,0.018110,0,255,255
-745.739929,18.997192,0.018120,0,255,255
-745.596863,18.882751,0.018130,0,255,255
-745.596863,18.882751,0.018140,0,255,255
-745.367981,18.424988,0.018150,0,255,255
-745.325073,18.138885,0.018160,0,255,255
-745.282166,17.967224,0.018170,0,255,255
-745.296509,17.623901,0.018180,0,255,255
-745.153442,17.280579,0.018190,0,255,255
-745.010376,16.937256,0.018200,0,255,255
-744.838745,16.765594,0.018210,0,255,255
-744.752869,16.479492,0.018220,0,255,255
-744.695679,16.193390,0.018230,0,255,255
-744.609863,15.850067,0.018240,0,255,255
-744.609863,15.735626,0.018250,0,255,255
-744.495361,15.392303,0.018260,0,255,255
-744.495361,15.163422,0.018270,0,255,255
-744.466797,15.048981,0.018280,0,255,255
-744.481079,14.705658,0.018290,0,255,255
-744.409546,14.362335,0.018300,0,255,255
-744.495361,14.305115,0.018310,0,255,255
-744.523987,13.904572,0.018320,0,255,255
-744.323730,13.675690,0.018330,0,255,255
-744.338013,13.504028,0.018340,0,255,255
-744.266479,12.989044,0.018350,0,255,255
-744.080566,12.474060,0.018360,0,255,255
-744.180664,12.359619,0.018370,0,255,255
-744.166382,12.130737,0.018380,0,255,255
-744.180664,11.959076,0.018390,0,255,255
-743.880249,11.787415,0.018400,0,255,255
-743.637085,11.501312,0.018410,0,255,255
-743.594177,11.615753,0.018420,0,255,255
-743.508362,11.157990,0.018430,0,255,255
-743.479736,10.929108,0.018440,0,255,255
-743.565552,10.700226,0.018450,0,255,255
-743.608459,10.471344,0.018460,0,255,255
-743.579834,10.242462,0.018470,0,255,255
-743.494019,10.013580,0.018480,0,255,255
-743.508362,9.899139,0.018490,0,255,255
-743.494019,9.613037,0.018500,0,255,255
-743.536926,9.555817,0.018510,0,255,255
-743.279480,8.811951,0.018520,0,255,255
-743.265137,8.697510,0.018530,0,255,255
-743.265137,8.640289,0.018540,0,255,255
-743.279480,8.525848,0.018550,0,255,255
-743.136414,8.010864,0.018560,0,255,255
-743.136414,7.724762,0.018570,0,255,255
-742.993347,7.610321,0.018580,0,255,255
-742.807373,7.324219,0.018590,0,255,255
-742.807373,7.209778,0.018600,0,255,255
-742.678650,6.809235,0.018610,0,255,255
-742.363953,6.637573,0.018620,0,255,255
-742.263794,6.465912,0.018630,0,255,255
-742.292419,6.294250,0.018640,0,255,255
-742.206543,6.008148,0.018650,0,255,255
-742.278076,6.008148,0.018660,0,255,255
-742.349609,6.065369,0.018670,0,255,255
-742.306702,5.836487,0.018680,0,255,255
-742.278076,5.607605,0.018690,0,255,255
-742.292419,5.264282,0.018700,0,255,255
-742.378235,4.978180,0.018710,0,255,255
-742.092163,4.577637,0.018720,0,255,255
-742.120728,4.405975,0.018730,0,255,255
-742.120728,4.291534,0.018740,0,255,255
-742.120728,4.119873,0.018750,0,255,255
-742.006287,3.890991,0.018760,0,255,255
-741.992004,3.776550,0.018770,0,255,255
-741.977661,3.547668,0.018780,0,255,255
-742.249512,3.376007,0.018790,0,255,255
-742.177979,3.204346,0.018800,0,255,255
-742.049194,3.147125,0.018810,0,255,255
-741.934753,3.089905,0.018820,0,255,255
-741.949097,2.975464,0.018830,0,255,255
-741.505615,2.460480,0.018840,0,255,255
-741.333984,2.288818,0.018850,0,255,255
-741.262451,2.117157,0.018860,0,255,255
-741.305359,1.773834,0.018870,0,255,255
-741.233826,1.716614,0.018880,0,255,255
-741.205200,1.544952,0.018890,0,255,255
-740.904785,1.258850,0.018900,0,255,255
-740.818970,1.029968,0.018910,0,255,255
-740.632996,0.858307,0.018920,0,255,255
-740.575806,0.801086,0.018930,0,255,255
-740.489990,0.514984,0.018940,0,255,255
-740.461365,0.286102,0.018950,0,255,255
-740.389832,0.171661,0.018960,0,255,255
-740.375488,0.057220,0.018970,0,255,255
-740.289673,-0.286102,0.018980,0,255,255
-740.160950,-0.343323,0.018990,0,255,255
-740.146606,-0.457764,0.019000,0,255,255
-740.103699,-0.514984,0.019010,0,255,255
-740.046509,-0.629425,0.019020,0,255,255
-740.003601,-0.686646,0.019030,0,255,255
-739.960693,-0.858307,0.019040,0,255,255
-739.932068,-0.972748,0.019050,0,255,255
-739.717468,-1.258850,0.019060,0,255,255
-739.617371,-1.544952,0.019070,0,255,255
-739.488586,-1.773834,0.019080,0,255,255
-739.417053,-1.945496,0.019090,0,255,255
-739.302612,-2.117157,0.019100,0,255,255
-739.231079,-2.174377,0.019110,0,255,255
-739.173889,-2.346039,0.019120,0,255,255
-739.045166,-2.632141,0.019130,0,255,255
-738.930725,-2.918243,0.019140,0,255,255
-738.873474,-3.032684,0.019150,0,255,255
-738.945007,-3.089905,0.019160,0,255,255
-738.945007,-3.147125,0.019170,0,255,255
-738.759033,-3.433228,0.019180,0,255,255
-738.701843,-3.662109,0.019190,0,255,255
-738.644592,-4.177094,0.019200,0,255,255
-738.544434,-4.291534,0.019210,0,255,255
-738.472961,-4.405975,0.019220,0,255,255
-738.444336,-4.634857,0.019230,0,255,255
-738.186829,-4.920959,0.019240,0,255,255
-738.072388,-5.321503,0.019250,0,255,255
-738.000854,-5.664825,0.019260,0,255,255
-738.015198,-6.065369,0.019270,0,255,255
-738.000854,-6.465912,0.019280,0,255,255
-737.957947,-6.637573,0.019290,0,255,255
-737.528809,-7.209778,0.019300,0,255,255
-737.414368,-7.266998,0.019310,0,255,255
-737.285645,-7.553101,0.019320,0,255,255
-737.271301,-7.667542,0.019330,0,255,255
-737.171143,-7.839203,0.019340,0,255,255
-737.113953,-7.953644,0.019350,0,255,255
-736.942261,-8.125305,0.019360,0,255,255
-736.813538,-8.354187,0.019370,0,255,255
-736.598999,-8.411407,0.019380,0,255,255
-736.498840,-8.583069,0.019390,0,255,255
-736.312866,-8.983612,0.019400,0,255,255
-735.983826,-9.212494,0.019410,0,255,255
-735.740662,-9.555817,0.019420,0,255,255
-735.626221,-9.670258,0.019430,0,255,255
-735.139832,-10.185242,0.019440,0,255,255
-734.953857,-10.471344,0.019450,0,255,255
-734.853760,-10.585785,0.019460,0,255,255
-734.925293,-10.871887,0.019470,0,255,255
-734.868042,-11.043549,0.019480,0,255,255
-734.796509,-11.272430,0.019490,0,255,255
-734.796509,-11.501312,0.019500,0,255,255
-734.696411,-11.615753,0.019510,0,255,255
-734.410278,-11.959076,0.019520,0,255,255
-734.181396,-12.359619,0.019530,0,255,255
-733.952515,-12.760162,0.019540,0,255,255
-733.866699,-12.874603,0.019550,0,255,255
-733.780884,-13.046265,0.019560,0,255,255
-733.652100,-13.103485,0.019570,0,255,255
-733.337402,-13.389587,0.019580,0,255,255
-733.108521,-13.618469,0.019590,0,255,255
-732.893921,-13.732910,0.019600,0,255,255
-732.822388,-13.847351,0.019610,0,255,255
-732.722290,-13.961792,0.019620,0,255,255
-732.622131,-14.076233,0.019630,0,255,255
-732.378967,-14.247894,0.019640,0,255,255
-732.150085,-14.648438,0.019650,0,255,255
-732.078552,-14.820099,0.019660,0,255,255
-731.949829,-15.277863,0.019670,0,255,255
-731.749512,-15.506744,0.019680,0,255,255
-731.635071,-15.678406,0.019690,0,255,255
-731.348999,-16.250610,0.019700,0,255,255
-731.320374,-16.422272,0.019710,0,255,255
-731.263184,-16.651154,0.019720,0,255,255
-731.105835,-16.994476,0.019730,0,255,255
-730.962769,-17.051697,0.019740,0,255,255
-730.562195,-17.395020,0.019750,0,255,255
-730.476379,-17.566681,0.019760,0,255,255
-730.490662,-17.623901,0.019770,0,255,255
-730.233215,-17.910004,0.019780,0,255,255
-730.190308,-18.310547,0.019790,0,255,255
-730.061523,-18.482208,0.019800,0,255,255
-729.646667,-18.825531,0.019810,0,255,255
-729.203247,-19.054413,0.019820,0,255,255
-728.974365,-19.397736,0.019830,0,255,255
-728.645325,-19.741058,0.019840,0,255,255
-728.273376,-19.969940,0.019850,0,255,255
-728.201843,-20.027161,0.019860,0,255,255
-727.858521,-20.141602,0.019870,0,255,255
-727.701172,-20.256042,0.019880,0,255,255
-727.415100,-20.370483,0.019890,0,255,255
-727.272034,-20.484924,0.019900,0,255,255
-726.942993,-20.599365,0.019910,0,255,255
-726.814270,-20.771027,0.019920,0,255,255
-726.799988,-20.828247,0.019930,0,255,255
-726.614014,-20.942688,0.019940,0,255,255
-726.413696,-21.171570,0.019950,0,255,255
-726.327881,-21.343231,0.019960,0,255,255
-726.270691,-21.400452,0.019970,0,255,255
-725.927368,-21.743774,0.019980,0,255,255
-725.798584,-22.029877,0.019990,0,255,255
-725.641235,-22.144318,0.020000,0,255,255
-725.355164,-22.373199,0.020010,0,255,255
-725.283630,-22.544861,0.020020,0,255,255
-725.111938,-22.773743,0.020030,0,255,255
-725.011841,-22.888184,0.020040,0,255,255
-724.840149,-23.002625,0.020050,0,255,255
-724.654175,-23.117065,0.020060,0,255,255
-724.496826,-23.231506,0.020070,0,255,255
-724.253662,-23.345947,0.020080,0,255,255
-724.225037,-23.517609,0.020090,0,255,255
-724.110596,-23.574829,0.020100,0,255,255
-724.081970,-23.632050,0.020110,0,255,255
-724.053406,-23.632050,0.020120,0,255,255
-724.081970,-23.689270,0.020130,0,255,255
-724.081970,-23.689270,0.020140,0,255,255
-724.081970,-23.918152,0.020150,0,255,255
-724.010498,-24.261475,0.020160,0,255,255
-723.924622,-24.604797,0.020170,0,255,255
-723.895996,-25.005341,0.020180,0,255,255
-723.867432,-25.348663,0.020190,0,255,255
-723.724365,-25.749207,0.020200,0,255,255
-723.624207,-25.978088,0.020210,0,255,255
-133.023254,71.468353,0.020220,0,255,255
-132.937439,71.468353,0.020230,0,255,255
-132.794373,71.525574,0.020240,0,255,255
-133.080475,71.525574,0.020250,0,255,255
-133.466721,71.582794,0.020260,0,255,255
-134.825714,71.411133,0.020270,0,255,255
-135.054596,71.353912,0.020280,0,255,255
-135.612488,70.838928,0.020290,0,255,255
-136.556625,69.923401,0.020300,0,255,255
-136.842728,69.580078,0.020310,0,255,255
-137.057312,69.408417,0.020320,0,255,255
-137.543671,69.065094,0.020330,0,255,255
-138.516418,68.378448,0.020340,0,255,255
-138.545044,68.264008,0.020350,0,255,255
-138.716705,68.149567,0.020360,0,255,255
-139.145844,67.863464,0.020370,0,255,255
-139.174469,67.749023,0.020380,0,255,255
-139.288910,67.577362,0.020390,0,255,255
-139.360428,67.462921,0.020400,0,255,255
-139.431946,67.234039,0.020410,0,255,255
-139.589310,67.062378,0.020420,0,255,255
-139.675140,66.947937,0.020430,0,255,255
-139.760971,66.719055,0.020440,0,255,255
-140.247345,66.547394,0.020450,0,255,255
-140.390396,66.432953,0.020460,0,255,255
-140.547760,66.261292,0.020470,0,255,255
-140.690796,65.860748,0.020480,0,255,255
-140.833862,65.517426,0.020490,0,255,255
-141.019821,65.460205,0.020500,0,255,255
-141.248703,65.002441,0.020510,0,255,255
-141.420364,64.773560,0.020520,0,255,255
-141.777985,64.315796,0.020530,0,255,255
-141.992569,63.686371,0.020540,0,255,255
-142.049789,63.114166,0.020550,0,255,255
-141.978271,62.713623,0.020560,0,255,255
-141.878128,62.370300,0.020570,0,255,255
-141.806610,61.798096,0.020580,0,255,255
-141.978271,61.283112,0.020590,0,255,255
-142.250061,61.168671,0.020600,0,255,255
-142.507553,60.882568,0.020610,0,255,255
-142.593384,60.768127,0.020620,0,255,255
-142.822266,60.424805,0.020630,0,255,255
-142.722137,60.253143,0.020640,0,255,255
-142.536163,60.024261,0.020650,0,255,255
-142.350189,59.738159,0.020660,0,255,255
-142.292969,59.452057,0.020670,0,255,255
-142.021179,59.165955,0.020680,0,255,255
-141.963959,59.108734,0.020690,0,255,255
-141.878128,58.650970,0.020700,0,255,255
-141.692169,58.422089,0.020710,0,255,255
-141.649246,57.964325,0.020720,0,255,255
-141.420364,57.449341,0.020730,0,255,255
-141.162872,56.877136,0.020740,0,255,255
-141.062744,56.533813,0.020750,0,255,255
-140.948303,56.190491,0.020760,0,255,255
-140.748016,55.732727,0.020770,0,255,255
-140.419006,55.446625,0.020780,0,255,255
-140.275955,55.332184,0.020790,0,255,255
-139.975555,54.988861,0.020800,0,255,255
-139.875412,54.645538,0.020810,0,255,255
-139.646530,54.187775,0.020820,0,255,255
-139.460571,53.844452,0.020830,0,255,255
-139.546387,53.501129,0.020840,0,255,255
-139.575012,53.443909,0.020850,0,255,255
-139.703751,52.986145,0.020860,0,255,255
-139.532089,52.700043,0.020870,0,255,255
-139.431946,52.185059,0.020880,0,255,255
-139.131546,51.956177,0.020890,0,255,255
-138.831146,51.498413,0.020900,0,255,255
-138.702393,51.155090,0.020910,0,255,255
-138.802521,50.868988,0.020920,0,255,255
-138.573639,50.411224,0.020930,0,255,255
-138.573639,50.354004,0.020940,0,255,255
-138.645172,50.010681,0.020950,0,255,255
-138.745300,49.381256,0.020960,0,255,255
-138.874054,48.809052,0.020970,0,255,255
-139.074326,48.294067,0.020980,0,255,255
-138.888367,47.893524,0.020990,0,255,255
-138.688080,47.435760,0.021000,0,255,255
-138.502121,47.149658,0.021010,0,255,255
-138.316162,46.863556,0.021020,0,255,255
-138.244629,46.806335,0.021030,0,255,255
-138.115875,46.577454,0.021040,0,255,255
-137.801178,46.005249,0.021050,0,255,255
-137.772552,45.890808,0.021060,0,255,255
-137.686737,45.719147,0.021070,0,255,255
-137.686737,45.318604,0.021080,0,255,255
-137.457855,44.860840,0.021090,0,255,255
-137.343414,44.746399,0.021100,0,255,255
-137.243271,44.460297,0.021110,0,255,255
-136.957169,44.116974,0.021120,0,255,255
-136.857025,43.888092,0.021130,0,255,255
-136.685364,43.659210,0.021140,0,255,255
-136.628143,43.315887,0.021150,0,255,255
-136.585236,42.972565,0.021160,0,255,255
-136.427887,42.514801,0.021170,0,255,255
-136.256226,42.228699,0.021180,0,255,255
-136.356354,41.885376,0.021190,0,255,255
-136.370667,41.599274,0.021200,0,255,255
-136.113159,41.141510,0.021210,0,255,255
-136.041641,41.027069,0.021220,0,255,255
-135.970123,40.912628,0.021230,0,255,255
-135.812759,40.683746,0.021240,0,255,255
-135.769836,40.512085,0.021250,0,255,255
-135.726929,40.111542,0.021260,0,255,255
-135.698318,39.825439,0.021270,0,255,255
-135.626801,39.367676,0.021280,0,255,255
-135.684021,39.138794,0.021290,0,255,255
-135.755539,38.967133,0.021300,0,255,255
-135.641098,38.681030,0.021310,0,255,255
-135.498047,38.509369,0.021320,0,255,255
-135.512360,38.108826,0.021330,0,255,255
-135.469437,37.879944,0.021340,0,255,255
-135.426514,37.479401,0.021350,0,255,255
-135.254852,37.364960,0.021360,0,255,255
-135.269165,37.136078,0.021370,0,255,255
-135.383606,37.021637,0.021380,0,255,255
-135.326385,36.678314,0.021390,0,255,255
-135.340698,36.220551,0.021400,0,255,255
-135.197632,35.762787,0.021410,0,255,255
-135.126114,35.476685,0.021420,0,255,255
-134.768494,34.904480,0.021430,0,255,255
-134.410858,34.503937,0.021440,0,255,255
-134.210587,34.160614,0.021450,0,255,255
-134.139069,34.046173,0.021460,0,255,255
-133.981705,33.931732,0.021470,0,255,255
-133.738525,33.588409,0.021480,0,255,255
-133.423798,33.359528,0.021490,0,255,255
-133.466721,33.302307,0.021500,0,255,255
-133.423798,33.187866,0.021510,0,255,255
-133.452423,32.901764,0.021520,0,255,255
-133.366577,32.844543,0.021530,0,255,255
-133.037567,32.672882,0.021540,0,255,255
-133.023254,32.272339,0.021550,0,255,255
-132.794373,32.100677,0.021560,0,255,255
-132.851593,31.814575,0.021570,0,255,255
-132.808685,31.642914,0.021580,0,255,255
-132.794373,31.242371,0.021590,0,255,255
-132.765778,31.528473,0.021600,0,255,255
-132.637024,31.242371,0.021610,0,255,255
-132.579803,31.013489,0.021620,0,255,255
-132.365234,30.784607,0.021630,0,255,255
-132.493973,30.498505,0.021640,0,255,255
-132.408142,30.384064,0.021650,0,255,255
-132.393829,30.212402,0.021660,0,255,255
-132.393829,30.040741,0.021670,0,255,255
-132.350922,29.697418,0.021680,0,255,255
-140.619278,46.291351,0.021690,0,255,255
-140.361786,46.291351,0.021700,0,255,255
-140.275955,46.291351,0.021710,0,255,255
-140.190125,46.291351,0.021720,0,255,255
-140.147217,46.291351,0.021730,0,255,255
-140.075684,46.291351,0.021740,0,255,255
-140.147217,46.291351,0.021750,0,255,255
-140.790939,46.291351,0.021760,0,255,255
-141.391754,46.291351,0.021770,0,255,255
-141.792297,46.234131,0.021780,0,255,255
-141.835205,46.176910,0.021790,0,255,255
-141.334534,46.119690,0.021800,0,255,255
-140.676498,46.119690,0.021810,0,255,255
-141.448975,44.803619,0.021820,0,255,255
-141.534805,44.574738,0.021830,0,255,255
-141.606323,43.544769,0.021840,0,255,255
-142.364502,43.945312,0.021850,0,255,255
-142.364502,44.002533,0.021860,0,255,255
-142.321594,44.002533,0.021870,0,255,255
-142.264374,44.002533,0.021880,0,255,255
-142.521851,44.002533,0.021890,0,255,255
-142.822266,43.888092,0.021900,0,255,255
-143.222809,43.773651,0.021910,0,255,255
-143.594742,43.487549,0.021920,0,255,255
-143.566132,43.487549,0.021930,0,255,255
-143.594742,43.487549,0.021940,0,255,255
-143.594742,43.487549,0.021950,0,255,255
-143.594742,43.487549,0.021960,0,255,255
-143.594742,43.487549,0.021970,0,255,255
-143.594742,43.487549,0.021980,0,255,255
-143.594742,43.487549,0.021990,0,255,255
-143.594742,43.487549,0.022000,0,255,255
-143.594742,43.487549,0.022010,0,255,255
-143.394470,43.487549,0.022020,0,255,255
-142.993927,43.315887,0.022030,0,255,255
-142.221451,43.087006,0.022040,0,255,255
-142.292969,43.144226,0.022050,0,255,255
-142.550476,43.087006,0.022060,0,255,255
-142.621994,43.029785,0.022070,0,255,255
-142.436035,42.858124,0.022080,0,255,255
-142.493256,42.800903,0.022090,0,255,255
-142.507553,42.800903,0.022100,0,255,255
-142.464630,42.743683,0.022110,0,255,255
-142.192841,42.743683,0.022120,0,255,255
-141.921051,42.743683,0.022130,0,255,255
-141.477585,42.800903,0.022140,0,255,255
-141.191483,42.743683,0.022150,0,255,255
-142.235748,41.656494,0.022160,0,255,255
-142.393112,41.599274,0.022170,0,255,255
-143.165588,41.542053,0.022180,0,255,255
-143.437378,41.599274,0.022190,0,255,255
-143.637665,41.770935,0.022200,0,255,255
-143.737793,41.828156,0.022210,0,255,255
-143.594742,41.828156,0.022220,0,255,255
-143.294342,41.885376,0.022230,0,255,255
-143.079758,41.942596,0.022240,0,255,255
-142.979614,41.942596,0.022250,0,255,255
-143.051147,41.885376,0.022260,0,255,255
-143.122681,41.828156,0.022270,0,255,255
