X,Y,Z,R,G,B
-3118.944092,-479.450226,0.417470,0,0,0
-3116.655273,-478.305817,0.417480,0,0,0
-3115.310547,-477.619171,0.417490,0,0,0
-3113.966064,-476.932526,0.417500,0,0,0
-3112.621338,-476.245880,0.417510,0,0,0
-3111.276611,-475.559235,0.417520,0,0,0
-3109.931885,-474.872589,0.417530,0,0,0
-3108.587158,-474.185944,0.417540,0,0,0
-3107.242676,-473.499298,0.417550,0,0,0
-3105.897949,-472.812653,0.417560,0,0,0
-3104.553223,-472.126007,0.417570,0,0,0
-3103.208496,-471.439362,0.417580,0,0,0
-3101.863770,-470.752716,0.417590,0,0,0
-3100.519287,-470.066071,0.417600,0,0,0
-3099.174561,-469.379425,0.417610,0,0,0
-3097.829834,-468.692780,0.417620,0,0,0
-3096.485107,-468.006134,0.417630,0,0,0
-3094.596924,-467.376709,0.417640,0,0,0
-3093.266602,-466.690063,0.417650,0,0,0
-3091.936035,-466.003418,0.417660,0,0,0
-3090.605713,-465.316772,0.417670,0,0,0
-3089.275391,-464.630127,0.417680,0,0,0
-3087.945068,-463.943481,0.417690,0,0,0
-3086.614502,-463.256836,0.417700,0,0,0
-3085.284180,-462.570190,0.417710,0,0,0
-3083.953857,-461.883545,0.417720,0,0,0
-3081.865234,-460.796356,0.417730,0,0,0
-3075.156250,-457.305908,0.417740,0,0,0
-1372.260986,-273.628235,0.417750,0,0,0
-1376.867310,-273.056030,0.417760,0,0,0
-2511.134033,-365.924835,0.417770,0,0,0
-2512.564697,-366.382599,0.417780,0,0,0
-2513.995117,-366.840363,0.417790,0,0,0
-2515.697510,-367.355347,0.417800,0,0,0
-2518.172363,-368.213654,0.417810,0,0,0
-2519.602783,-368.671417,0.417820,0,0,0
-2521.033203,-369.129181,0.417830,0,0,0
-2522.950195,-369.758606,0.417840,0,0,0
-2524.366455,-370.273590,0.417850,0,0,0
-2525.954346,-370.845795,0.417860,0,0,0
-2527.327637,-371.417999,0.417870,0,0,0
-2528.700928,-371.990204,0.417880,0,0,0
-2530.074219,-372.562408,0.417890,0,0,0
-2532.262695,-373.535156,0.417900,0,0,0
-2539.086426,-376.682281,0.417910,0,0,0
-1458.048828,-253.486633,0.417920,0,0,0
-1459.493652,-253.086090,0.417930,0,0,0
-1460.938477,-252.685547,0.417940,0,0,0
-1462.383301,-252.285004,0.417950,0,0,0
-1463.828125,-251.884460,0.417960,0,0,0
-1465.272949,-251.483917,0.417970,0,0,0
-1466.717773,-251.083374,0.417980,0,0,0
-1468.162598,-250.682831,0.417990,0,0,0
-1469.607300,-250.282288,0.418000,0,0,0
-1471.052124,-249.881744,0.418010,0,0,0
-1472.496948,-249.481201,0.418020,0,0,0
-1473.941772,-249.080658,0.418030,0,0,0
-1475.386597,-248.680115,0.418040,0,0,0
-1476.831421,-248.279572,0.418050,0,0,0
-1478.276245,-247.879028,0.418060,0,0,0
-1479.949951,-247.306824,0.418070,0,0,0
-1481.423340,-247.020721,0.418080,0,0,0
-1482.896851,-246.734619,0.418090,0,0,0
-1484.370239,-246.448517,0.418100,0,0,0
-1485.843628,-246.162415,0.418110,0,0,0
-1487.317139,-245.876312,0.418120,0,0,0
-1488.790527,-245.590210,0.418130,0,0,0
-1491.494141,-244.903564,0.418140,0,0,0
-1492.981934,-244.674683,0.418150,0,0,0
-1494.469604,-244.445801,0.418160,0,0,0
-1495.957397,-244.216919,0.418170,0,0,0
-1497.445068,-243.988037,0.418180,0,0,0
-1498.932861,-243.759155,0.418190,0,0,0
-1500.420532,-243.530273,0.418200,0,0,0
-1501.908325,-243.301392,0.418210,0,0,0
-1503.395996,-243.072510,0.418220,0,0,0
-1504.883789,-242.843628,0.418230,0,0,0
-1507.430054,-242.729187,0.418240,0,0,0
-1508.932129,-242.614746,0.418250,0,0,0
-1510.434204,-242.500305,0.418260,0,0,0
-1511.936157,-242.385864,0.418270,0,0,0
-1513.438232,-242.271423,0.418280,0,0,0
-1515.212036,-242.099762,0.418290,0,0,0
-1516.714111,-241.985321,0.418300,0,0,0
-1518.216187,-241.870880,0.418310,0,0,0
-1519.718140,-241.756439,0.418320,0,0,0
-1521.220215,-241.641998,0.418330,0,0,0
-1522.722290,-241.527557,0.418340,0,0,0
-1524.224243,-241.413116,0.418350,0,0,0
-1525.955200,-241.470337,0.418360,0,0,0
-1527.457275,-241.470337,0.418370,0,0,0
-1529.645874,-241.527557,0.418380,0,0,0
-1531.147949,-241.527557,0.418390,0,0,0
-1532.650024,-241.527557,0.418400,0,0,0
-1534.151978,-241.527557,0.418410,0,0,0
-1536.068970,-241.584778,0.418420,0,0,0
-1537.570923,-241.584778,0.418430,0,0,0
-1539.072998,-241.584778,0.418440,0,0,0
-1541.519165,-241.641998,0.418450,0,0,0
-1543.021240,-241.699219,0.418460,0,0,0
-1544.523193,-241.756439,0.418470,0,0,0
-1546.025269,-241.813660,0.418480,0,0,0
-1547.527344,-241.870880,0.418490,0,0,0
-1549.029297,-241.928101,0.418500,0,0,0
-1550.531372,-241.985321,0.418510,0,0,0
-1552.033447,-242.042542,0.418520,0,0,0
-1553.535400,-242.099762,0.418530,0,0,0
-1556.425049,-242.443085,0.418540,0,0,0
-1557.927124,-242.557526,0.418550,0,0,0
-1559.429199,-242.671967,0.418560,0,0,0
-1560.931152,-242.786407,0.418570,0,0,0
-1562.433228,-242.900848,0.418580,0,0,0
-1563.935303,-243.015289,0.418590,0,0,0
-1565.437256,-243.129730,0.418600,0,0,0
-1566.939331,-243.244171,0.418610,0,0,0
-1568.441406,-243.358612,0.418620,0,0,0
-1569.943481,-243.473053,0.418630,0,0,0
-1571.445435,-243.587494,0.418640,0,0,0
-1572.947510,-243.701935,0.418650,0,0,0
-1574.449585,-243.816376,0.418660,0,0,0
-1575.951538,-243.930817,0.418670,0,0,0
-1577.453613,-244.045258,0.418680,0,0,0
-1578.955688,-244.159698,0.418690,0,0,0
-1580.457642,-244.274139,0.418700,0,0,0
-1581.959717,-244.388580,0.418710,0,0,0
-1583.461792,-244.503021,0.418720,0,0,0
-1584.963745,-244.617462,0.418730,0,0,0
-1586.465820,-244.731903,0.418740,0,0,0
-1587.967896,-244.846344,0.418750,0,0,0
-1589.469971,-244.960785,0.418760,0,0,0
-1590.971924,-245.075226,0.418770,0,0,0
-1592.473999,-245.189667,0.418780,0,0,0
-1593.976074,-245.304108,0.418790,0,0,0
-1595.478027,-245.418549,0.418800,0,0,0
-1596.980103,-245.532990,0.418810,0,0,0
-1598.482178,-245.647430,0.418820,0,0,0
-1599.984131,-245.761871,0.418830,0,0,0
-1601.486206,-245.876312,0.418840,0,0,0
-1602.988281,-245.990753,0.418850,0,0,0
-1604.490234,-246.105194,0.418860,0,0,0
-1605.992310,-246.219635,0.418870,0,0,0
-1607.494385,-246.334076,0.418880,0,0,0
-1608.996338,-246.448517,0.418890,0,0,0
-1610.498413,-246.562958,0.418900,0,0,0
-1612.000488,-246.677399,0.418910,0,0,0
-1613.502441,-246.791840,0.418920,0,0,0
-1615.004517,-246.906281,0.418930,0,0,0
-1616.506592,-247.020721,0.418940,0,0,0
-1618.008667,-247.135162,0.418950,0,0,0
-1619.510620,-247.249603,0.418960,0,0,0
-1621.012695,-247.364044,0.418970,0,0,0
-1622.514771,-247.478485,0.418980,0,0,0
-1624.016724,-247.592926,0.418990,0,0,0
-1625.518799,-247.707367,0.419000,0,0,0
-1627.020874,-247.821808,0.419010,0,0,0
-1628.866211,-248.165131,0.419020,0,0,0
-1630.368286,-248.279572,0.419030,0,0,0
-1631.870239,-248.394012,0.419040,0,0,0
-1633.372314,-248.508453,0.419050,0,0,0
-1634.874390,-248.622894,0.419060,0,0,0
-1636.376343,-248.737335,0.419070,0,0,0
-1637.878418,-248.851776,0.419080,0,0,0
-1639.380493,-248.966217,0.419090,0,0,0
-1640.882446,-249.080658,0.419100,0,0,0
-1642.384521,-249.195099,0.419110,0,0,0
-1643.886597,-249.309540,0.419120,0,0,0
-1645.388550,-249.423981,0.419130,0,0,0
-1646.890625,-249.538422,0.419140,0,0,0
-1648.392700,-249.652863,0.419150,0,0,0
-1649.894775,-249.767303,0.419160,0,0,0
-1651.396729,-249.881744,0.419170,0,0,0
-1652.898804,-249.996185,0.419180,0,0,0
-1654.400879,-250.110626,0.419190,0,0,0
-1655.902832,-250.225067,0.419200,0,0,0
-1657.404907,-250.339508,0.419210,0,0,0
-1658.906982,-250.453949,0.419220,0,0,0
-1660.408936,-250.568390,0.419230,0,0,0
-1661.911011,-250.682831,0.419240,0,0,0
-1663.413086,-250.797272,0.419250,0,0,0
-1664.915039,-250.911713,0.419260,0,0,0
-1666.417114,-251.026154,0.419270,0,0,0
-1667.919189,-251.140594,0.419280,0,0,0
-1669.421143,-251.255035,0.419290,0,0,0
-1670.923218,-251.369476,0.419300,0,0,0
-1672.425293,-251.483917,0.419310,0,0,0
-1673.927246,-251.598358,0.419320,0,0,0
-1675.429321,-251.712799,0.419330,0,0,0
-1676.931396,-251.827240,0.419340,0,0,0
-1679.177246,-252.056122,0.419350,0,0,0
-1680.679321,-252.170563,0.419360,0,0,0
-1682.181396,-252.285004,0.419370,0,0,0
-1683.683350,-252.399445,0.419380,0,0,0
-1685.185425,-252.513885,0.419390,0,0,0
-1686.687500,-252.628326,0.419400,0,0,0
-1688.189453,-252.742767,0.419410,0,0,0
-1689.691528,-252.857208,0.419420,0,0,0
-1691.193604,-252.971649,0.419430,0,0,0
-1692.695557,-253.086090,0.419440,0,0,0
-1694.197632,-253.200531,0.419450,0,0,0
-1695.699707,-253.314972,0.419460,0,0,0
-1697.201782,-253.429413,0.419470,0,0,0
-1698.703735,-253.543854,0.419480,0,0,0
-1700.205811,-253.658295,0.419490,0,0,0
-1701.707886,-253.772736,0.419500,0,0,0
-1703.209839,-253.887177,0.419510,0,0,0
-1704.711914,-254.001617,0.419520,0,0,0
-1706.213989,-254.116058,0.419530,0,0,0
-1707.715942,-254.230499,0.419540,0,0,0
-1709.218018,-254.344940,0.419550,0,0,0
-1710.720093,-254.459381,0.419560,0,0,0
-1712.222046,-254.573822,0.419570,0,0,0
-1713.724121,-254.688263,0.419580,0,0,0
-1716.313354,-254.230499,0.419590,0,0,0
-1717.801147,-254.344940,0.419600,0,0,0
-1719.288818,-254.459381,0.419610,0,0,0
-1720.776611,-254.573822,0.419620,0,0,0
-1722.264282,-254.688263,0.419630,0,0,0
-1723.752075,-254.802704,0.419640,0,0,0
-1725.239746,-254.917145,0.419650,0,0,0
-1726.727539,-255.031586,0.419660,0,0,0
-1728.215210,-255.146027,0.419670,0,0,0
-1729.703003,-255.260468,0.419680,0,0,0
-1731.190674,-255.374908,0.419690,0,0,0
-1732.678467,-255.489349,0.419700,0,0,0
-1734.166138,-255.603790,0.419710,0,0,0
-1735.653931,-255.718231,0.419720,0,0,0
-1737.141602,-255.832672,0.419730,0,0,0
-1738.629395,-255.947113,0.419740,0,0,0
-1740.117065,-256.061554,0.419750,0,0,0
-1741.604858,-256.175995,0.419760,0,0,0
-1743.092529,-256.290436,0.419770,0,0,0
-1744.580322,-256.404877,0.419780,0,0,0
-1746.067993,-256.519318,0.419790,0,0,0
-1748.256714,-257.148743,0.419800,0,0,0
-1749.758667,-257.263184,0.419810,0,0,0
-1751.260742,-257.377625,0.419820,0,0,0
-1752.762817,-257.492065,0.419830,0,0,0
-1754.264893,-257.606506,0.419840,0,0,0
-1755.766846,-257.720947,0.419850,0,0,0
-1757.268921,-257.835388,0.419860,0,0,0
-1758.770996,-257.949829,0.419870,0,0,0
-1760.272949,-258.064270,0.419880,0,0,0
-1762.290039,-258.293152,0.419890,0,0,0
-1763.777710,-258.407593,0.419900,0,0,0
-1765.265503,-258.522034,0.419910,0,0,0
-1766.753174,-258.636475,0.419920,0,0,0
-1768.240967,-258.750916,0.419930,0,0,0
-1769.728638,-258.865356,0.419940,0,0,0
-1771.216431,-258.979797,0.419950,0,0,0
-1772.704102,-259.094238,0.419960,0,0,0
-1774.191895,-259.208679,0.419970,0,0,0
-1775.679565,-259.323120,0.419980,0,0,0
-1777.596436,-259.723663,0.419990,0,0,0
-1779.084229,-259.895325,0.420000,0,0,0
-1780.571899,-260.066986,0.420010,0,0,0
-1782.059692,-260.238647,0.420020,0,0,0
-1783.547363,-260.410309,0.420030,0,0,0
-1785.035156,-260.581970,0.420040,0,0,0
-1786.522827,-260.753632,0.420050,0,0,0
-1788.010620,-260.925293,0.420060,0,0,0
-1789.498291,-261.096954,0.420070,0,0,0
-1790.986084,-261.268616,0.420080,0,0,0
-1792.473755,-261.440277,0.420090,0,0,0
-1793.961548,-261.611938,0.420100,0,0,0
-1795.449219,-261.783600,0.420110,0,0,0
-1796.937012,-261.955261,0.420120,0,0,0
-1798.796631,-262.126923,0.420130,0,0,0
-1800.270020,-262.413025,0.420140,0,0,0
-1801.743530,-262.699127,0.420150,0,0,0
-1803.216919,-262.985229,0.420160,0,0,0
-1804.690308,-263.271332,0.420170,0,0,0
-1806.163818,-263.557434,0.420180,0,0,0
-1807.637207,-263.843536,0.420190,0,0,0
-1809.110596,-264.129639,0.420200,0,0,0
-1810.584106,-264.415741,0.420210,0,0,0
-1812.057495,-264.701843,0.420220,0,0,0
-1813.530884,-264.987946,0.420230,0,0,0
-1815.004395,-265.274048,0.420240,0,0,0
-1816.477783,-265.560150,0.420250,0,0,0
-1817.951172,-265.846252,0.420260,0,0,0
-1820.783569,-266.304016,0.420270,0,0,0
-1822.257080,-266.590118,0.420280,0,0,0
-1823.730469,-266.876221,0.420290,0,0,0
-1825.876221,-267.219543,0.420300,0,0,0
-1827.306763,-267.677307,0.420310,0,0,0
-1828.737305,-268.135071,0.420320,0,0,0
-1830.167725,-268.592834,0.420330,0,0,0
-1831.598267,-269.050598,0.420340,0,0,0
-1833.028809,-269.508362,0.420350,0,0,0
-1834.459351,-269.966125,0.420360,0,0,0
-1835.889771,-270.423889,0.420370,0,0,0
-1837.320312,-270.881653,0.420380,0,0,0
-1838.750854,-271.339417,0.420390,0,0,0
-1840.181396,-271.797180,0.420400,0,0,0
-1841.611816,-272.254944,0.420410,0,0,0
-1843.042358,-272.712708,0.420420,0,0,0
-1844.472900,-273.170471,0.420430,0,0,0
-1845.903442,-273.628235,0.420440,0,0,0
-1847.333862,-274.085999,0.420450,0,0,0
-1849.565552,-274.372101,0.420460,0,0,0
-1850.953125,-274.944305,0.420470,0,0,0
-1852.340698,-275.516510,0.420480,0,0,0
-1853.728271,-276.088715,0.420490,0,0,0
-1855.115845,-276.660919,0.420500,0,0,0
-1856.503540,-277.233124,0.420510,0,0,0
-1857.891113,-277.805328,0.420520,0,0,0
-1859.278687,-278.377533,0.420530,0,0,0
-1860.666260,-278.949738,0.420540,0,0,0
-1862.053833,-279.521942,0.420550,0,0,0
-1863.441406,-280.094147,0.420560,0,0,0
-1864.829102,-280.666351,0.420570,0,0,0
-1866.703003,-281.181335,0.420580,0,0,0
-1868.047729,-281.867981,0.420590,0,0,0
-1869.392334,-282.554626,0.420600,0,0,0
-1870.737061,-283.241272,0.420610,0,0,0
-1872.081787,-283.927917,0.420620,0,0,0
-1873.426392,-284.614563,0.420630,0,0,0
-1874.771118,-285.301208,0.420640,0,0,0
-1876.115845,-285.987854,0.420650,0,0,0
-1877.460449,-286.674500,0.420660,0,0,0
-1878.805176,-287.361145,0.420670,0,0,0
-1880.149902,-288.047791,0.420680,0,0,0
-1881.694824,-288.505554,0.420690,0,0,0
-1883.025146,-289.192200,0.420700,0,0,0
-1884.355591,-289.878845,0.420710,0,0,0
-1885.685913,-290.565491,0.420720,0,0,0
-1887.016357,-291.252136,0.420730,0,0,0
-1888.346680,-291.938782,0.420740,0,0,0
-1889.677002,-292.625427,0.420750,0,0,0
-1891.007446,-293.312073,0.420760,0,0,0
-1892.337769,-293.998718,0.420770,0,0,0
-1893.668213,-294.685364,0.420780,0,0,0
-1894.998535,-295.372009,0.420790,0,0,0
-1896.586426,-296.344757,0.420800,0,0,0
-1896.986938,-296.516418,0.420810,0,0,0
-1898.360229,-297.145844,0.420820,0,0,0
-1899.733521,-297.775269,0.420830,0,0,0
-1901.106812,-298.404694,0.420840,0,0,0
-1902.480103,-299.034119,0.420850,0,0,0
-1903.853394,-299.663544,0.420860,0,0,0
-1905.226685,-300.292969,0.420870,0,0,0
-1906.599976,-300.922394,0.420880,0,0,0
-1907.973267,-301.551819,0.420890,0,0,0
-1910.634033,-302.639008,0.420900,0,0,0
-1912.021606,-303.211212,0.420910,0,0,0
-1913.409180,-303.783417,0.420920,0,0,0
-1914.796875,-304.355621,0.420930,0,0,0
-1916.184448,-304.927826,0.420940,0,0,0
-1917.572021,-305.500031,0.420950,0,0,0
-1919.560425,-306.415558,0.420960,0,0,0
-1920.990967,-306.873322,0.420970,0,0,0
-1922.421509,-307.331085,0.420980,0,0,0
-1923.851929,-307.788849,0.420990,0,0,0
-1925.282471,-308.246613,0.421000,0,0,0
-1927.270874,-308.761597,0.421010,0,0,0
-1928.715698,-309.162140,0.421020,0,0,0
-1930.160522,-309.562683,0.421030,0,0,0
-1931.605347,-309.963226,0.421040,0,0,0
-1933.050171,-310.363770,0.421050,0,0,0
-1934.494995,-310.764313,0.421060,0,0,0
-1935.939819,-311.164856,0.421070,0,0,0
-1937.384644,-311.565399,0.421080,0,0,0
-1938.829468,-311.965942,0.421090,0,0,0
-1940.274292,-312.366486,0.421100,0,0,0
-1941.718994,-312.767029,0.421110,0,0,0
-1943.507202,-313.110352,0.421120,0,0,0
-1945.538574,-313.682556,0.421130,0,0,0
-693.812378,-456.161499,0.421140,0,0,0
-695.285767,-455.875397,0.421150,0,0,0
-696.759216,-455.589294,0.421160,0,0,0
-698.232666,-455.303192,0.421170,0,0,0
-699.706055,-455.017090,0.421180,0,0,0
-701.179504,-454.730988,0.421190,0,0,0
-702.652954,-454.444885,0.421200,0,0,0
-704.126343,-454.158783,0.421210,0,0,0
-705.599792,-453.872681,0.421220,0,0,0
-707.073242,-453.586578,0.421230,0,0,0
-708.546631,-453.300476,0.421240,0,0,0
-710.020081,-453.014374,0.421250,0,0,0
-711.493469,-452.728271,0.421260,0,0,0
-712.966919,-452.442169,0.421270,0,0,0
-714.440369,-452.156067,0.421280,0,0,0
-715.913757,-451.869965,0.421290,0,0,0
-718.059570,-451.412201,0.421300,0,0,0
-718.431458,-449.981689,0.421310,0,0,0
-718.803406,-448.551178,0.421320,0,0,0
-719.304077,-446.491241,0.421330,0,0,0
-719.933533,-445.117950,0.421340,0,0,0
-720.562927,-443.744659,0.421350,0,0,0
-721.192383,-442.371368,0.421360,0,0,0
-721.821777,-440.998077,0.421370,0,0,0
-722.451233,-439.624786,0.421380,0,0,0
-723.080627,-438.251495,0.421390,0,0,0
-723.710083,-436.878204,0.421400,0,0,0
-724.339478,-435.504913,0.421410,0,0,0
-725.426697,-433.273315,0.421420,0,0,0
-725.898743,-431.842804,0.421430,0,0,0
-726.370789,-430.412292,0.421440,0,0,0
-726.842896,-428.981781,0.421450,0,0,0
-727.314941,-427.551270,0.421460,0,0,0
-727.815613,-426.006317,0.421470,0,0,0
-728.602417,-424.747467,0.421480,0,0,0
-729.389160,-423.488617,0.421490,0,0,0
-730.175964,-422.229767,0.421500,0,0,0
-731.019958,-420.856476,0.421510,0,0,0
-731.778137,-419.540405,0.421520,0,0,0
-732.536316,-418.224335,0.421530,0,0,0
-733.723633,-416.221619,0.421540,0,0,0
-734.424561,-414.905548,0.421550,0,0,0
-735.697754,-412.445068,0.421560,0,0,0
-737.872131,-410.900116,0.421570,0,0,0
-739.302612,-410.442352,0.421580,0,0,0
-742.020630,-409.526825,0.421590,0,0,0
-743.465454,-409.126282,0.421600,0,0,0
-746.269226,-408.267975,0.421610,0,0,0
-747.685425,-407.752991,0.421620,0,0,0
-749.101624,-407.238007,0.421630,0,0,0
-750.517822,-406.723022,0.421640,0,0,0
-752.806641,-405.921936,0.421650,0,0,0
-754.208557,-405.406952,0.421660,0,0,0
-755.610474,-404.891968,0.421670,0,0,0
-757.012390,-404.376984,0.421680,0,0,0
-758.414246,-403.862000,0.421690,0,0,0
-759.816162,-403.347015,0.421700,0,0,0
-761.218079,-402.832031,0.421710,0,0,0
-762.619995,-402.317047,0.421720,0,0,0
-764.021851,-401.802063,0.421730,0,0,0
-765.423767,-401.287079,0.421740,0,0,0
-766.825684,-400.772095,0.421750,0,0,0
-768.227600,-400.257111,0.421760,0,0,0
-769.629456,-399.742126,0.421770,0,0,0
-771.031372,-399.227142,0.421780,0,0,0
-772.433289,-398.712158,0.421790,0,0,0
-773.835205,-398.197174,0.421800,0,0,0
-775.237061,-397.682190,0.421810,0,0,0
-776.638977,-397.167206,0.421820,0,0,0
-778.040894,-396.652222,0.421830,0,0,0
-779.442810,-396.137238,0.421840,0,0,0
-780.844666,-395.622253,0.421850,0,0,0
-782.246582,-395.107269,0.421860,0,0,0
-783.648499,-394.592285,0.421870,0,0,0
-785.050415,-394.077301,0.421880,0,0,0
-786.452271,-393.562317,0.421890,0,0,0
-787.854187,-393.047333,0.421900,0,0,0
-789.256104,-392.532349,0.421910,0,0,0
-790.658020,-392.017365,0.421920,0,0,0
-792.059875,-391.502380,0.421930,0,0,0
-793.461792,-390.987396,0.421940,0,0,0
-794.863708,-390.472412,0.421950,0,0,0
-796.265625,-389.957428,0.421960,0,0,0
-797.667480,-389.442444,0.421970,0,0,0
-799.069397,-388.927460,0.421980,0,0,0
-800.471313,-388.412476,0.421990,0,0,0
-801.873230,-387.897491,0.422000,0,0,0
-803.275085,-387.382507,0.422010,0,0,0
-804.677002,-386.867523,0.422020,0,0,0
-806.078918,-386.352539,0.422030,0,0,0
-807.480835,-385.837555,0.422040,0,0,0
-808.882690,-385.322571,0.422050,0,0,0
-810.284607,-384.807587,0.422060,0,0,0
-811.686523,-384.292603,0.422070,0,0,0
-813.088440,-383.777618,0.422080,0,0,0
-815.362915,-382.862091,0.422090,0,0,0
-816.764832,-382.347107,0.422100,0,0,0
-818.166748,-381.832123,0.422110,0,0,0
-819.568604,-381.317139,0.422120,0,0,0
-820.970520,-380.802155,0.422130,0,0,0
-822.372437,-380.287170,0.422140,0,0,0
-823.774353,-379.772186,0.422150,0,0,0
-825.176270,-379.257202,0.422160,0,0,0
-826.578125,-378.742218,0.422170,0,0,0
-827.980042,-378.227234,0.422180,0,0,0
-829.381958,-377.712250,0.422190,0,0,0
-830.783813,-377.197266,0.422200,0,0,0
-832.185730,-376.682281,0.422210,0,0,0
-833.787903,-375.995636,0.422220,0,0,0
-869.293213,-360.832214,0.422230,0,0,0
-1989.111938,-324.268341,0.422240,0,0,0
-1990.456543,-322.208405,0.422250,0,0,0
-1991.171875,-320.892334,0.422260,0,0,0
-1992.330566,-318.775177,0.422270,0,0,0
-1993.074463,-317.459106,0.422280,0,0,0
-1993.818237,-316.143036,0.422290,0,0,0
-1994.833984,-314.426422,0.422300,0,0,0
-1996.035522,-313.339233,0.422310,0,0,0
-1997.065552,-312.366486,0.422320,0,0,0
-1998.353027,-311.565399,0.422330,0,0,0
-2000.641846,-310.192108,0.422340,0,0,0
-2000.842041,-309.906006,0.422350,0,0,0
-2002.258301,-307.731628,0.422360,0,0,0
-2002.887695,-306.358337,0.422370,0,0,0
-2003.517090,-304.985046,0.422380,0,0,0
-2004.461304,-302.982330,0.422390,0,0,0
-2005.176514,-301.666260,0.422400,0,0,0
-2005.891846,-300.350189,0.422410,0,0,0
-2006.607056,-299.034119,0.422420,0,0,0
-2007.322266,-297.718048,0.422430,0,0,0
-2008.037598,-296.401978,0.422440,0,0,0
-2008.752808,-295.085907,0.422450,0,0,0
-2009.539551,-293.712616,0.422460,0,0,0
-2010.297729,-292.396545,0.422470,0,0,0
-2011.055908,-291.080475,0.422480,0,0,0
-2011.814087,-289.764404,0.422490,0,0,0
-2013.216064,-287.361145,0.422500,0,0,0
-2014.217407,-286.216736,0.422510,0,0,0
-2015.218750,-285.072327,0.422520,0,0,0
-2017.121338,-283.012390,0.422530,0,0,0
-2018.322998,-282.096863,0.422540,0,0,0
-2019.524536,-281.181335,0.422550,0,0,0
-2020.726196,-280.265808,0.422560,0,0,0
-2022.929199,-278.720856,0.422570,0,0,0
-2024.173706,-277.862549,0.422580,0,0,0
-2026.648560,-276.203156,0.422590,0,0,0
-2027.592651,-275.573730,0.422600,0,0,0
-2024.431274,-649.566650,0.422610,0,0,0
-2024.488403,-651.226074,0.422620,0,0,0
-2025.117920,-652.599365,0.422630,0,0,0
-2025.747314,-653.972656,0.422640,0,0,0
-2026.577026,-655.746460,0.422650,0,0,0
-2028.579712,-659.866333,0.422660,0,0,0
-2055.730713,-665.130615,0.422670,0,0,0
-2054.128662,-671.768188,0.422680,0,0,0
-2082.624512,-667.362183,0.422690,0,0,0
-2080.078125,-673.255920,0.422700,0,0,0
-2035.689331,696.716309,0.422710,0,0,0
-2034.473389,697.574585,0.422720,0,0,0
-2033.257446,698.432922,0.422730,0,0,0
-2032.041504,699.291260,0.422740,0,0,0
-2030.825562,700.149536,0.422750,0,0,0
-2029.609619,701.007812,0.422760,0,0,0
-2028.064697,702.209473,0.422770,0,0,0
-2016.377441,711.135864,0.422780,0,0,0
-2041.926392,699.634521,0.422790,0,0,0
-2022.557251,713.996887,0.422800,0,0,0
-2000.942261,763.607056,0.422810,0,0,0
-2002.329834,764.179199,0.422820,0,0,0
-2003.717407,764.751465,0.422830,0,0,0
-2005.963379,765.609741,0.422840,0,0,0
-2008.695557,766.754150,0.422850,0,0,0
-2009.625488,768.470764,0.422860,0,0,0
-2019.681885,773.391724,0.422870,0,0,0
-2053.527832,704.441040,0.422880,0,0,0
-2052.383301,705.413818,0.422890,0,0,0
-2051.024414,706.558228,0.422900,0,0,0
-2049.737061,707.302124,0.422910,0,0,0
-2047.333740,708.732605,0.422920,0,0,0
-2036.604858,716.972351,0.422930,0,0,0
-2024.860352,768.642456,0.422940,0,0,0
-2023.501343,768.013000,0.422950,0,0,0
-2021.498657,767.097473,0.422960,0,0,0
-2020.111084,766.525269,0.422970,0,0,0
-2018.723511,765.953064,0.422980,0,0,0
-2017.335938,765.380859,0.422990,0,0,0
-2015.948242,764.808655,0.423000,0,0,0
-2014.560669,764.236450,0.423010,0,0,0
-2013.173096,763.664246,0.423020,0,0,0
-2011.785522,763.092041,0.423030,0,0,0
-2009.725586,762.119263,0.423040,0,0,0
-2001.285522,758.857727,0.423050,0,0,0
-2048.520996,748.386353,0.423060,0,0,0
-2060.723389,737.228394,0.423070,0,0,0
-2029.209106,693.912476,0.423080,0,0,0
-2028.050415,694.885254,0.423090,0,0,0
-2026.577026,696.086914,0.423100,0,0,0
-2025.418335,697.059631,0.423110,0,0,0
-2024.259521,698.032349,0.423120,0,0,0
-2023.100830,699.005127,0.423130,0,0,0
-2021.942139,699.977905,0.423140,0,0,0
-2020.168335,701.351196,0.423150,0,0,0
-2011.342041,708.560913,0.423160,0,0,0
-2029.237793,765.094727,0.423170,0,0,0
-2027.850098,764.522583,0.423180,0,0,0
-2026.462524,763.950317,0.423190,0,0,0
-2025.074951,763.378174,0.423200,0,0,0
-2023.687378,762.805908,0.423210,0,0,0
-2022.299805,762.233765,0.423220,0,0,0
-2020.912109,761.661499,0.423230,0,0,0
-2019.524536,761.089355,0.423240,0,0,0
-2018.136963,760.517090,0.423250,0,0,0
-2016.749390,759.944946,0.423260,0,0,0
-2015.361816,759.372681,0.423270,0,0,0
-2013.230347,758.628845,0.423280,0,0,0
-2003.130859,754.795044,0.423290,0,0,0
-2042.913452,745.811462,0.423300,0,0,0
-2055.573486,734.252930,0.423310,0,0,0
-2076.516113,713.424683,0.423320,0,0,0
-2075.314453,714.340210,0.423330,0,0,0
-2074.112793,715.255737,0.423340,0,0,0
-2072.010010,716.800659,0.423350,0,0,0
-2062.110840,723.724365,0.423360,0,0,0
-2043.528564,756.511719,0.423370,0,0,0
-2042.140991,755.939453,0.423380,0,0,0
-2040.753418,755.367310,0.423390,0,0,0
-2039.365723,754.795044,0.423400,0,0,0
-2037.978149,754.222900,0.423410,0,0,0
-2036.590576,753.650635,0.423420,0,0,0
-2035.203003,753.078491,0.423430,0,0,0
-2033.815430,752.506226,0.423440,0,0,0
-2032.427734,751.934082,0.423450,0,0,0
-2031.040161,751.361816,0.423460,0,0,0
-2029.652588,750.789673,0.423470,0,0,0
-2028.265015,750.217407,0.423480,0,0,0
-2026.877441,749.645264,0.423490,0,0,0
-2025.489746,749.072998,0.423500,0,0,0
-2023.973511,748.729736,0.423510,0,0,0
-2022.585815,748.157471,0.423520,0,0,0
-2021.198242,747.585327,0.423530,0,0,0
-2019.810669,747.013062,0.423540,0,0,0
-2018.423096,746.440918,0.423550,0,0,0
-2017.035522,745.868652,0.423560,0,0,0
-2015.647949,745.296509,0.423570,0,0,0
-2014.260254,744.724243,0.423580,0,0,0
-2012.872681,744.152100,0.423590,0,0,0
-2011.485107,743.579834,0.423600,0,0,0
-2010.097534,743.007690,0.423610,0,0,0
-2008.709961,742.435425,0.423620,0,0,0
-2007.322266,741.863281,0.423630,0,0,0
-2005.319580,740.890503,0.423640,0,0,0
-1987.395264,733.623535,0.423650,0,0,0
-2001.514404,744.266479,0.423660,0,0,0
-2002.630249,743.293762,0.423670,0,0,0
-2003.746094,742.321045,0.423680,0,0,0
-2005.319580,740.890503,0.423690,0,0,0
-2006.521240,739.974976,0.423700,0,0,0
-2007.722900,739.059448,0.423710,0,0,0
-2009.096191,738.029480,0.423720,0,0,0
-2012.443604,735.397339,0.423730,0,0,0
-2086.687012,717.487305,0.423740,0,0,0
-2085.528320,718.460083,0.423750,0,0,0
-2084.369629,719.432861,0.423760,0,0,0
-2083.210938,720.405579,0.423770,0,0,0
-2082.052246,721.378296,0.423780,0,0,0
-2080.893555,722.351074,0.423790,0,0,0
-2078.976562,723.895996,0.423800,0,0,0
-2073.469238,728.073120,0.423810,0,0,0
-1994.876831,728.130371,0.423820,0,0,0
-1996.264404,728.702515,0.423830,0,0,0
-1997.652100,729.274780,0.423840,0,0,0
-1999.039673,729.846924,0.423850,0,0,0
-2000.799194,730.533569,0.423860,0,0,0
-2002.186768,731.105835,0.423870,0,0,0
-2003.574341,731.677979,0.423880,0,0,0
-2004.961914,732.250244,0.423890,0,0,0
-2006.392456,732.765198,0.423900,0,0,0
-2007.765747,733.337402,0.423910,0,0,0
-2009.139038,733.909607,0.423920,0,0,0
-2010.512329,734.481812,0.423930,0,0,0
-2012.443604,735.397339,0.423940,0,0,0
-2013.831177,735.969543,0.423950,0,0,0
-2015.218750,736.541748,0.423960,0,0,0
-2016.606323,737.113953,0.423970,0,0,0
-2018.108398,737.743408,0.423980,0,0,0
-2019.538818,738.201172,0.423990,0,0,0
-2020.969360,738.658936,0.424000,0,0,0
-2022.399902,739.116699,0.424010,0,0,0
-2024.631470,739.860535,0.424020,0,0,0
-2026.062012,740.318298,0.424030,0,0,0
-2027.492554,740.776062,0.424040,0,0,0
-2028.923096,741.233826,0.424050,0,0,0
-2031.226196,741.977661,0.424060,0,0,0
-2032.671021,742.378235,0.424070,0,0,0
-2034.115845,742.778809,0.424080,0,0,0
-2035.560547,743.179321,0.424090,0,0,0
-2037.119873,743.694336,0.424100,0,0,0
-2038.521729,744.209290,0.424110,0,0,0
-2039.923706,744.724243,0.424120,0,0,0
-2041.325562,745.239258,0.424130,0,0,0
-2042.913452,745.811462,0.424140,0,0,0
-2044.272461,746.440918,0.424150,0,0,0
-2045.631348,747.070312,0.424160,0,0,0
-2046.990356,747.699707,0.424170,0,0,0
-2048.520996,748.386353,0.424180,0,0,0
-2049.922852,748.901367,0.424190,0,0,0
-2052.011475,749.702454,0.424200,0,0,0
-2053.170166,749.816895,0.424210,0,0,0
-2054.100098,749.473572,0.424220,0,0,0
-2064.857422,740.833252,0.424230,0,0,0
-2026.505493,679.321289,0.424240,0,0,0
-2034.001343,683.383911,0.424250,0,0,0
-2006.392456,732.765198,0.424260,0,0,0
-2007.594116,731.849670,0.424270,0,0,0
-2008.795776,730.934143,0.424280,0,0,0
-2009.997314,730.018616,0.424290,0,0,0
-2011.198975,729.103088,0.424300,0,0,0
-2012.400635,728.187561,0.424310,0,0,0
-2013.602295,727.272034,0.424320,0,0,0
-2014.803833,726.356506,0.424330,0,0,0
-2016.005493,725.440979,0.424340,0,0,0
-2017.207153,724.525452,0.424350,0,0,0
-2018.408813,723.609924,0.424360,0,0,0
-2019.610352,722.694397,0.424370,0,0,0
-2020.812012,721.778870,0.424380,0,0,0
-2022.013672,720.863342,0.424390,0,0,0
-2023.215332,719.947815,0.424400,0,0,0
-2025.375366,718.688965,0.424410,0,0,0
-2028.851562,716.114014,0.424420,0,0,0
-2020.940796,690.078735,0.424430,0,0,0
-2020.683350,689.277649,0.424440,0,0,0
-2021.684692,687.103271,0.424450,0,0,0
-2022.442871,685.443848,0.424460,0,0,0
-2023.272461,684.185059,0.424470,0,0,0
-2024.102173,682.926147,0.424480,0,0,0
-2024.931885,681.667358,0.424490,0,0,0
-2026.505493,679.321289,0.424500,0,0,0
-2027.864502,676.689148,0.424510,0,0,0
-2028.593994,675.830811,0.424520,0,0,0
-2030.181885,675.773621,0.424530,0,0,0
-2048.034668,753.192871,0.424540,0,0,0
-2046.647095,752.620728,0.424550,0,0,0
-2045.259521,752.048462,0.424560,0,0,0
-2043.871826,751.476318,0.424570,0,0,0
-2042.484253,750.904053,0.424580,0,0,0
-2041.096680,750.331909,0.424590,0,0,0
-2039.709106,749.759644,0.424600,0,0,0
-2038.321533,749.187500,0.424610,0,0,0
-2036.933838,748.615234,0.424620,0,0,0
-2035.546265,748.043091,0.424630,0,0,0
-2034.158691,747.470825,0.424640,0,0,0
-2032.771118,746.898682,0.424650,0,0,0
-2031.383545,746.326416,0.424660,0,0,0
-2029.995972,745.754272,0.424670,0,0,0
-2027.850098,745.067627,0.424680,0,0,0
-2026.433960,744.552612,0.424690,0,0,0
-2025.017700,744.037598,0.424700,0,0,0
-2023.601562,743.522644,0.424710,0,0,0
-2022.185303,743.007690,0.424720,0,0,0
-2020.769165,742.492676,0.424730,0,0,0
-2019.352905,741.977661,0.424740,0,0,0
-2017.879517,741.519897,0.424750,0,0,0
-2016.491943,740.947754,0.424760,0,0,0
-2015.104248,740.375488,0.424770,0,0,0
-2013.716675,739.803345,0.424780,0,0,0
-2012.329102,739.231079,0.424790,0,0,0
-2010.941528,738.658936,0.424800,0,0,0
-2009.096191,738.029480,0.424810,0,0,0
-2007.708496,737.457275,0.424820,0,0,0
-2006.320923,736.885071,0.424830,0,0,0
-2004.933350,736.312866,0.424840,0,0,0
-2003.545776,735.740662,0.424850,0,0,0
-2002.158203,735.168457,0.424860,0,0,0
-2000.770508,734.596252,0.424870,0,0,0
-1999.382935,734.024048,0.424880,0,0,0
-1997.995361,733.451843,0.424890,0,0,0
-1996.607788,732.879639,0.424900,0,0,0
-1995.034180,732.250244,0.424910,0,0,0
-1993.618042,731.792480,0.424920,0,0,0
-1991.157471,730.934143,0.424930,0,0,0
-1989.755615,730.648071,0.424940,0,0,0
-1988.625488,730.648071,0.424950,0,0,0
-1987.853027,730.934143,0.424960,0,0,0
-2024.631470,739.860535,0.424970,0,0,0
-2040.953613,725.212097,0.424980,0,0,0
-2032.856934,762.004883,0.424990,0,0,0
-2031.469360,761.432617,0.425000,0,0,0
-2030.081787,760.860474,0.425010,0,0,0
-2028.694092,760.288208,0.425020,0,0,0
-2027.306519,759.716064,0.425030,0,0,0
-2025.918945,759.143799,0.425040,0,0,0
-2024.531372,758.571655,0.425050,0,0,0
-2023.143799,757.999390,0.425060,0,0,0
-2021.756226,757.427246,0.425070,0,0,0
-2020.368530,756.854980,0.425080,0,0,0
-2018.980957,756.282837,0.425090,0,0,0
-2016.878174,755.481689,0.425100,0,0,0
-1980.843506,740.947754,0.425110,0,0,0
-2081.508545,715.484619,0.425120,0,0,0
-2066.545410,726.242065,0.425130,0,0,0
-2078.990967,729.618042,0.425140,0,0,0
-2080.192627,728.702515,0.425150,0,0,0
-2081.394287,727.786987,0.425160,0,0,0
-2082.595703,726.871460,0.425170,0,0,0
-2083.797363,725.955933,0.425180,0,0,0
-2084.999023,725.040405,0.425190,0,0,0
-2086.200684,724.124878,0.425200,0,0,0
-2087.402344,723.209351,0.425210,0,0,0
-2088.604004,722.293823,0.425220,0,0,0
-2089.805664,721.378296,0.425230,0,0,0
-2091.322021,720.405579,0.425240,0,0,0
-2091.021484,719.318359,0.425250,0,0,0
-2089.634033,718.746216,0.425260,0,0,0
-2088.246338,718.173950,0.425270,0,0,0
-2086.687012,717.487305,0.425280,0,0,0
-2085.285156,716.972351,0.425290,0,0,0
-2083.883301,716.457397,0.425300,0,0,0
-2081.508545,715.484619,0.425310,0,0,0
-2080.121094,714.912415,0.425320,0,0,0
-2078.733398,714.340210,0.425330,0,0,0
-2076.516113,713.424683,0.425340,0,0,0
-2075.128662,712.852478,0.425350,0,0,0
-2073.740967,712.280273,0.425360,0,0,0
-2072.353271,711.708069,0.425370,0,0,0
-2070.794189,711.078613,0.425380,0,0,0
-2069.377930,710.563660,0.425390,0,0,0
-2067.961670,710.048706,0.425400,0,0,0
-2065.415283,709.133179,0.425410,0,0,0
-2064.027832,708.560913,0.425420,0,0,0
-2062.640137,707.988770,0.425430,0,0,0
-2061.252686,707.416504,0.425440,0,0,0
-2059.464355,706.729858,0.425450,0,0,0
-2058.062500,706.214905,0.425460,0,0,0
-2056.660645,705.699951,0.425470,0,0,0
-2055.258789,705.184937,0.425480,0,0,0
-2053.527832,704.441040,0.425490,0,0,0
-2052.140137,703.868896,0.425500,0,0,0
-2050.752686,703.296631,0.425510,0,0,0
-2049.364990,702.724487,0.425520,0,0,0
-2047.877319,702.152222,0.425530,0,0,0
-2046.489746,701.580078,0.425540,0,0,0
-2045.102173,701.007812,0.425550,0,0,0
-2043.714478,700.435669,0.425560,0,0,0
-2041.926392,699.634521,0.425570,0,0,0
-2040.567383,699.005127,0.425580,0,0,0
-2039.208374,698.375732,0.425590,0,0,0
-2037.849365,697.746277,0.425600,0,0,0
-2035.689331,696.716309,0.425610,0,0,0
-2034.316040,696.144104,0.425620,0,0,0
-2032.942749,695.571899,0.425630,0,0,0
-2031.569458,694.999695,0.425640,0,0,0
-2029.209106,693.912476,0.425650,0,0,0
-2027.120605,692.481995,0.425660,0,0,0
-2025.733032,691.909790,0.425670,0,0,0
-2023.343994,690.937012,0.425680,0,0,0
-2020.940796,690.078735,0.425690,0,0,0
-2065.415283,709.133179,0.425700,0,0,0
-2064.213867,710.048706,0.425710,0,0,0
-2063.012207,710.964233,0.425720,0,0,0
-2061.810547,711.879761,0.425730,0,0,0
-2060.608887,712.795288,0.425740,0,0,0
-2059.407227,713.710815,0.425750,0,0,0
-2058.205566,714.626343,0.425760,0,0,0
-2057.003906,715.541870,0.425770,0,0,0
-2055.802246,716.457397,0.425780,0,0,0
-2054.428955,717.315674,0.425790,0,0,0
-2053.170166,718.116760,0.425800,0,0,0
-2051.911377,718.917847,0.425810,0,0,0
-2050.094727,720.176697,0.425820,0,0,0
-2046.260864,723.552734,0.425830,0,0,0
-2038.063965,759.201050,0.425840,0,0,0
-2036.676392,758.628845,0.425850,0,0,0
-2035.288818,758.056641,0.425860,0,0,0
-2033.901245,757.484436,0.425870,0,0,0
-2032.513672,756.912231,0.425880,0,0,0
-2031.125977,756.340027,0.425890,0,0,0
-2029.738403,755.767822,0.425900,0,0,0
-2028.350830,755.195618,0.425910,0,0,0
-2026.963257,754.623413,0.425920,0,0,0
-2025.575684,754.051208,0.425930,0,0,0
-2024.187988,753.479004,0.425940,0,0,0
-2022.800415,752.906799,0.425950,0,0,0
-2020.440063,752.048462,0.425960,0,0,0
-2019.052490,751.476318,0.425970,0,0,0
-2017.664917,750.904053,0.425980,0,0,0
-2016.277344,750.331909,0.425990,0,0,0
-2014.889771,749.759644,0.426000,0,0,0
-2013.502075,749.187500,0.426010,0,0,0
-2012.114502,748.615234,0.426020,0,0,0
-2010.726929,748.043091,0.426030,0,0,0
-2009.339355,747.470825,0.426040,0,0,0
-2007.951782,746.898682,0.426050,0,0,0
-2006.564087,746.326416,0.426060,0,0,0
-2005.176514,745.754272,0.426070,0,0,0
-2003.788940,745.182007,0.426080,0,0,0
-2001.514404,744.266479,0.426090,0,0,0
-1983.161011,736.827881,0.426100,0,0,0
-2000.799194,730.533569,0.426110,0,0,0
-2001.929321,729.560852,0.426120,0,0,0
-2003.059326,728.588135,0.426130,0,0,0
-2004.189453,727.615356,0.426140,0,0,0
-2005.319580,726.642578,0.426150,0,0,0
-2006.449707,725.669861,0.426160,0,0,0
-2007.579834,724.697144,0.426170,0,0,0
-2008.709961,723.724365,0.426180,0,0,0
-2010.541016,722.122192,0.426190,0,0,0
-2022.557251,713.996887,0.426200,0,0,0
-2037.119873,743.694336,0.426210,0,0,0
-2038.207031,742.664307,0.426220,0,0,0
-2039.294189,741.634399,0.426230,0,0,0
-2040.381470,740.604370,0.426240,0,0,0
-2041.468628,739.574463,0.426250,0,0,0
-2042.555786,738.544434,0.426260,0,0,0
-2043.642944,737.514526,0.426270,0,0,0
-2044.730225,736.484497,0.426280,0,0,0
-2045.817383,735.454590,0.426290,0,0,0
-2046.904541,734.424561,0.426300,0,0,0
-2048.649902,732.879639,0.426310,0,0,0
-2049.050293,731.906860,0.426320,0,0,0
-2059.464355,706.729858,0.426330,0,0,0
-2041.368530,720.005005,0.426340,0,0,0
-2053.470703,726.299316,0.426350,0,0,0
-2051.939941,725.669861,0.426360,0,0,0
-2050.538086,725.154907,0.426370,0,0,0
-2049.136230,724.639893,0.426380,0,0,0
-2047.734253,724.124878,0.426390,0,0,0
-2046.260864,723.552734,0.426400,0,0,0
-2044.916138,722.866089,0.426410,0,0,0
-2043.571533,722.179443,0.426420,0,0,0
-2041.282715,721.092224,0.426430,0,0,0
-2041.368530,720.005005,0.426440,0,0,0
-2040.195435,719.089478,0.426450,0,0,0
-2038.536133,717.716187,0.426460,0,0,0
-2036.604858,716.972351,0.426470,0,0,0
-2035.131470,716.686279,0.426480,0,0,0
-2033.658081,716.400146,0.426490,0,0,0
-2031.669678,715.942383,0.426500,0,0,0
-2028.851562,716.114014,0.426510,0,0,0
-2027.435303,715.656250,0.426520,0,0,0
-2026.019043,715.198486,0.426530,0,0,0
-2024.602905,714.740723,0.426540,0,0,0
-2022.557251,713.996887,0.426550,0,0,0
-2021.198242,713.367432,0.426560,0,0,0
-2019.839233,712.738037,0.426570,0,0,0
-2018.480347,712.108643,0.426580,0,0,0
-2016.377441,711.135864,0.426590,0,0,0
-2015.004150,710.506470,0.426600,0,0,0
-2013.158813,709.705322,0.426610,0,0,0
-2011.342041,708.560913,0.426620,0,0,0
-2009.983032,707.931519,0.426630,0,0,0
-2008.624023,707.302124,0.426640,0,0,0
-2006.492676,706.329346,0.426650,0,0,0
-2003.202393,704.841614,0.426660,0,0,0
-2915.811523,-308.761597,0.426670,0,0,0
-2916.598389,-307.502747,0.426680,0,0,0
-2917.656982,-305.786133,0.426690,0,0,0
-2916.212158,-305.385590,0.426700,0,0,0
-2914.767334,-304.985046,0.426710,0,0,0
-2913.322510,-304.584503,0.426720,0,0,0
-2911.877686,-304.183960,0.426730,0,0,0
-2910.432861,-303.783417,0.426740,0,0,0
-2908.988037,-303.382874,0.426750,0,0,0
-2907.543213,-302.982330,0.426760,0,0,0
-2906.098389,-302.581787,0.426770,0,0,0
-2904.653564,-302.181244,0.426780,0,0,0
-2902.765381,-301.837921,0.426790,0,0,0
-2898.416504,-300.865173,0.426800,0,0,0
-4594.817383,91.724396,0.426810,0,0,0
-4594.659668,94.356537,0.426820,0,0,0
-4621.481934,84.514618,0.426830,0,0,0
-4623.284180,83.827972,0.426840,0,0,0
-4624.757812,83.541870,0.426850,0,0,0
-4626.531738,83.255768,0.426860,0,0,0
-4628.019531,83.084106,0.426870,0,0,0
-4629.506836,82.912445,0.426880,0,0,0
-4631.581543,82.740784,0.426890,0,0,0
-4635.400879,82.626343,0.426900,0,0,0
-4599.008789,85.773468,0.426910,0,0,0
-4600.496094,85.544586,0.426920,0,0,0
-4601.983887,85.315704,0.426930,0,0,0
-4603.471680,85.086823,0.426940,0,0,0
-4606.375488,84.743500,0.426950,0,0,0
-4607.877930,84.228516,0.426960,0,0,0
-4278.173340,-82.454681,0.426970,0,0,0
-4277.644043,-87.947845,0.426980,0,0,0
-4571.471191,-501.766205,0.426990,0,0,0
-4572.916016,-501.365662,0.427000,0,0,0
-4575.133301,-500.736237,0.427010,0,0,0
-4576.578125,-500.335693,0.427020,0,0,0
-4579.052734,-499.649048,0.427030,0,0,0
-4578.080078,-498.504639,0.427040,0,0,0
-4577.107422,-497.360229,0.427050,0,0,0
-4576.134766,-496.215820,0.427060,0,0,0
-4575.162109,-495.071411,0.427070,0,0,0
-4573.888672,-493.526459,0.427080,0,0,0
-4572.701660,-493.354797,0.427090,0,0,0
-4571.943359,-493.240356,0.427100,0,0,0
-4569.282715,-493.984222,0.427110,0,0,0
-4565.334473,-495.071411,0.427120,0,0,0
-4578.108887,-494.041443,0.427130,0,0,0
-4589.209473,-491.065979,0.427140,0,0,0
-4563.117188,-492.668152,0.427150,0,0,0
-4564.132812,-493.755341,0.427160,0,0,0
-4565.334473,-495.071411,0.427170,0,0,0
-4566.350098,-496.158600,0.427180,0,0,0
-4567.365723,-497.245789,0.427190,0,0,0
-4568.381348,-498.332977,0.427200,0,0,0
-4569.396973,-499.420166,0.427210,0,0,0
-4570.412598,-500.507355,0.427220,0,0,0
-4571.471191,-501.766205,0.427230,0,0,0
-4574.246582,-504.798889,0.427240,0,0,0
-4553.804199,-498.161316,0.427250,0,0,0
-4555.263672,-497.817993,0.427260,0,0,0
-4556.722656,-497.474670,0.427270,0,0,0
-4559.140137,-496.845245,0.427280,0,0,0
-4562.831055,-495.872498,0.427290,0,0,0
-4548.239746,-430.583954,0.427300,0,0,0
-4546.008301,-427.036285,0.427310,0,0,0
-4581.026855,-495.643616,0.427320,0,0,0
-4582.028320,-496.730804,0.427330,0,0,0
-4583.029785,-497.817993,0.427340,0,0,0
-4584.031250,-498.905182,0.427350,0,0,0
-4585.032227,-499.992371,0.427360,0,0,0
-4586.033691,-501.079559,0.427370,0,0,0
-4587.035156,-502.166748,0.427380,0,0,0
-4588.608887,-503.997803,0.427390,0,0,0
-4576.707031,-507.602692,0.427400,0,0,0
-4598.493652,-437.850952,0.427410,0,0,0
-4599.952637,-437.507629,0.427420,0,0,0
-4601.940918,-437.049866,0.427430,0,0,0
-4599.638184,-433.788300,0.427440,0,0,0
-4587.478516,-489.292145,0.427450,0,0,0
-4577.536621,-492.267609,0.427460,0,0,0
-4575.133301,-500.736237,0.427470,0,0,0
-4569.282715,-493.984222,0.427480,0,0,0
-4566.006836,-454.387665,0.427490,0,0,0
-4567.451660,-453.987122,0.427500,0,0,0
-4569.268066,-453.472137,0.427510,0,0,0
-4570.341309,-454.502106,0.427520,0,0,0
-4571.414062,-455.532074,0.427530,0,0,0
-4572.486816,-456.562042,0.427540,0,0,0
-4573.760254,-457.878113,0.427550,0,0,0
-4570.770508,-458.965302,0.427560,0,0,0
-4590.912109,-445.804596,0.427570,0,0,0
-4591.841797,-446.949005,0.427580,0,0,0
-4598.636719,-455.074310,0.427590,0,0,0
-4555.277832,-500.621796,0.427600,0,0,0
-4556.708496,-500.164032,0.427610,0,0,0
-4558.138672,-499.706268,0.427620,0,0,0
-4559.569336,-499.248505,0.427630,0,0,0
-4561.014160,-498.790741,0.427640,0,0,0
-4563.903809,-497.932434,0.427650,0,0,0
-4602.083984,-442.771912,0.427660,0,0,0
-4601.197266,-441.570282,0.427670,0,0,0
-4600.310547,-440.368652,0.427680,0,0,0
-4599.423340,-439.167023,0.427690,0,0,0
-4598.493652,-437.850952,0.427700,0,0,0
-4595.833008,-434.417725,0.427710,0,0,0
-4544.777832,-431.556702,0.427720,0,0,0
-4542.560547,-427.780151,0.427730,0,0,0
-4417.390625,977.325439,0.427740,0,0,0
-4414.987793,977.382690,0.427750,0,0,0
-4412.555664,976.581543,0.427760,0,0,0
-4411.654297,975.379944,0.427770,0,0,0
-4410.753418,974.178345,0.427780,0,0,0
-4409.852051,972.976685,0.427790,0,0,0
-4408.321289,970.973999,0.427800,0,0,0
-4407.191406,970.001221,0.427810,0,0,0
-4406.061035,969.028442,0.427820,0,0,0
-4404.931152,968.055725,0.427830,0,0,0
-4403.800781,967.083008,0.427840,0,0,0
-4402.670898,966.110229,0.427850,0,0,0
-4401.540527,965.137451,0.427860,0,0,0
-4399.767090,963.592529,0.427870,0,0,0
-4398.793945,962.448120,0.427880,0,0,0
-4397.664062,961.132080,0.427890,0,0,0
-4396.748535,959.930420,0.427900,0,0,0
-4395.833008,958.728760,0.427910,0,0,0
-4394.917480,957.527161,0.427920,0,0,0
-4394.001953,956.325562,0.427930,0,0,0
-4392.328125,954.265625,0.427940,0,0,0
-4391.469727,953.063965,0.427950,0,0,0
-4390.439941,951.576233,0.427960,0,0,0
-4389.152344,950.145752,0.427970,0,0,0
-4387.250000,949.459106,0.427980,0,0,0
-4385.748047,949.401855,0.427990,0,0,0
-4382.829590,949.287415,0.428000,0,0,0
-4381.327637,949.344604,0.428010,0,0,0
-4378.867188,949.459106,0.428020,0,0,0
-4377.379395,949.687988,0.428030,0,0,0
-4375.891602,949.916870,0.428040,0,0,0
-4374.360840,950.088501,0.428050,0,0,0
-4372.901855,950.431824,0.428060,0,0,0
-4371.442871,950.775146,0.428070,0,0,0
-4369.754883,951.175659,0.428080,0,0,0
-4367.165527,952.434570,0.428090,0,0,0
-4365.863770,953.178406,0.428100,0,0,0
-4364.261719,954.093933,0.428110,0,0,0
-4362.874023,954.666138,0.428120,0,0,0
-4361.100098,955.352783,0.428130,0,0,0
-4359.612305,955.581665,0.428140,0,0,0
-4357.223633,955.982178,0.428150,0,0,0
-4355.721680,956.039429,0.428160,0,0,0
-4354.033691,956.153870,0.428170,0,0,0
-4352.531250,956.096680,0.428180,0,0,0
-4351.029297,956.039429,0.428190,0,0,0
-4349.527344,955.982178,0.428200,0,0,0
-4348.025391,955.924988,0.428210,0,0,0
-4346.523438,955.867798,0.428220,0,0,0
-4345.021484,955.810547,0.428230,0,0,0
-4343.519043,955.753296,0.428240,0,0,0
-4342.017090,955.696106,0.428250,0,0,0
-4339.842773,955.696106,0.428260,0,0,0
-4338.340820,955.696106,0.428270,0,0,0
-4336.838867,955.696106,0.428280,0,0,0
-4335.336914,955.696106,0.428290,0,0,0
-4333.348145,955.753296,0.428300,0,0,0
-4331.846191,955.867798,0.428310,0,0,0
-4330.344238,955.982178,0.428320,0,0,0
-4328.413086,956.153870,0.428330,0,0,0
-4326.911133,956.096680,0.428340,0,0,0
-4324.192871,955.924988,0.428350,0,0,0
-4321.604004,955.066650,0.428360,0,0,0
-4319.486816,953.521729,0.428370,0,0,0
-4318.485352,952.377319,0.428380,0,0,0
-4317.483887,951.232910,0.428390,0,0,0
-4316.482422,950.088501,0.428400,0,0,0
-4315.480957,948.944092,0.428410,0,0,0
-4313.607422,946.941406,0.428420,0,0,0
-4312.663086,945.796997,0.428430,0,0,0
-4311.718750,944.652588,0.428440,0,0,0
-4310.774902,943.508179,0.428450,0,0,0
-4309.830566,942.363770,0.428460,0,0,0
-4308.886719,941.219360,0.428470,0,0,0
-4307.942383,940.074951,0.428480,0,0,0
-4306.998047,938.930542,0.428490,0,0,0
-4305.438965,936.927795,0.428500,0,0,0
-4304.351562,935.897827,0.428510,0,0,0
-4303.264648,934.867859,0.428520,0,0,0
-4302.177246,933.837891,0.428530,0,0,0
-4301.090332,932.807922,0.428540,0,0,0
-4299.673828,931.434631,0.428550,0,0,0
-4298.701172,930.290222,0.428560,0,0,0
-4297.728516,929.145813,0.428570,0,0,0
-4296.755859,928.001404,0.428580,0,0,0
-4295.783203,926.856995,0.428590,0,0,0
-4294.810059,925.712585,0.428600,0,0,0
-4293.837402,924.568176,0.428610,0,0,0
-4292.864746,923.423767,0.428620,0,0,0
-4291.892090,922.279358,0.428630,0,0,0
-4290.919434,921.134949,0.428640,0,0,0
-4289.946777,919.990540,0.428650,0,0,0
-4288.973633,918.846130,0.428660,0,0,0
-4288.000977,917.701721,0.428670,0,0,0
-4287.028320,916.557312,0.428680,0,0,0
-4286.055664,915.412903,0.428690,0,0,0
-4285.083008,914.268494,0.428700,0,0,0
-4284.109863,913.124084,0.428710,0,0,0
-4283.137207,911.979675,0.428720,0,0,0
-4281.420898,910.148621,0.428730,0,0,0
-4279.818359,908.088684,0.428740,0,0,0
-4279.260742,906.715393,0.428750,0,0,0
-4278.674316,905.227661,0.428760,0,0,0
-4278.202148,903.797119,0.428770,0,0,0
-4277.558105,901.908875,0.428780,0,0,0
-4276.228027,899.448364,0.428790,0,0,0
-4275.240723,898.303955,0.428800,0,0,0
-4274.253906,897.159546,0.428810,0,0,0
-4273.266602,896.015137,0.428820,0,0,0
-4272.279785,894.870728,0.428830,0,0,0
-4271.292480,893.726318,0.428840,0,0,0
-4270.305664,892.581909,0.428850,0,0,0
-4269.318359,891.437500,0.428860,0,0,0
-4268.331543,890.293091,0.428870,0,0,0
-4267.344238,889.148682,0.428880,0,0,0
-4265.756836,887.432129,0.428890,0,0,0
-4264.497559,885.658264,0.428900,0,0,0
-4263.725098,883.655518,0.428910,0,0,0
-4263.238770,881.252319,0.428920,0,0,0
-4263.195801,879.764526,0.428930,0,0,0
-4263.153320,877.876282,0.428940,0,0,0
-4263.181641,876.388550,0.428950,0,0,0
-4263.210449,874.900818,0.428960,0,0,0
-4263.267578,871.925354,0.428970,0,0,0
-4262.695312,870.666504,0.428980,0,0,0
-4261.250488,869.407654,0.428990,0,0,0
-4258.790039,868.148804,0.429000,0,0,0
-4257.402344,867.576599,0.429010,0,0,0
-4256.014648,867.004395,0.429020,0,0,0
-4253.597168,866.031616,0.429030,0,0,0
-4252.152344,865.631104,0.429040,0,0,0
-4250.707520,865.230591,0.429050,0,0,0
-4249.262695,864.830017,0.429060,0,0,0
-4247.817871,864.429443,0.429070,0,0,0
-4246.373047,864.028931,0.429080,0,0,0
-4244.227539,863.399536,0.429090,0,0,0
-4242.782715,862.998962,0.429100,0,0,0
-4241.337891,862.598389,0.429110,0,0,0
-4239.721191,862.140625,0.429120,0,0,0
-4238.291016,861.682861,0.429130,0,0,0
-4236.688477,861.167908,0.429140,0,0,0
-4235.300781,860.595703,0.429150,0,0,0
-4233.913574,860.023499,0.429160,0,0,0
-4231.166992,858.936279,0.429170,0,0,0
-4229.707520,858.593018,0.429180,0,0,0
-4227.404785,858.078003,0.429190,0,0,0
-4224.629395,857.849121,0.429200,0,0,0
-4223.127441,857.849121,0.429210,0,0,0
-4221.439453,857.906372,0.429220,0,0,0
-4219.951660,858.078003,0.429230,0,0,0
-4218.435059,858.249634,0.429240,0,0,0
-4216.460938,858.020752,0.429250,0,0,0
-4214.858887,857.448608,0.429260,0,0,0
-4213.814941,856.361389,0.429270,0,0,0
-4212.770508,855.274170,0.429280,0,0,0
-4211.726074,854.187012,0.429290,0,0,0
-4210.682129,853.099854,0.429300,0,0,0
-4209.637695,852.012634,0.429310,0,0,0
-4208.307129,850.696533,0.429320,0,0,0
-4207.406250,849.494934,0.429330,0,0,0
-4205.875488,847.434998,0.429340,0,0,0
-4205.603516,845.546753,0.429350,0,0,0
-4205.789551,844.058960,0.429360,0,0,0
-4206.032715,841.999023,0.429370,0,0,0
-4205.546387,840.740234,0.429380,0,0,0
-4204.444824,839.710205,0.429390,0,0,0
-4203.229004,838.623047,0.429400,0,0,0
-4199.652832,836.505859,0.429410,0,0,0
-4565.019531,637.435913,0.429420,0,0,0
-4564.118164,635.890991,0.429430,0,0,0
-4561.915527,634.288818,0.429440,0,0,0
-4556.122070,631.427734,0.429450,0,0,0
-4551.887695,-429.382324,0.429460,0,0,0
-4550.056641,-430.011749,0.429470,0,0,0
-4548.239746,-430.583954,0.429480,0,0,0
-4546.794922,-430.984497,0.429490,0,0,0
-4544.777832,-431.556702,0.429500,0,0,0
-4535.236328,-433.273315,0.429510,0,0,0
-4496.684082,92.754364,0.429520,0,0,0
-4499.416504,93.555450,0.429530,0,0,0
-4500.775391,94.757080,0.429540,0,0,0
-4501.876953,96.530914,0.429550,0,0,0
-4502.206055,98.018646,0.429560,0,0,0
-4502.534668,99.506378,0.429570,0,0,0
-4503.078613,101.852417,0.429580,0,0,0
-4503.851074,104.198456,0.429590,0,0,0
-4504.137207,105.686188,0.429600,0,0,0
-4504.465820,107.402802,0.429610,0,0,0
-4504.809570,108.890533,0.429620,0,0,0
-4505.152832,110.378265,0.429630,0,0,0
