X,Y,Z,R,G,B
-4183.931152,8.754730,0.064150,255,255,0
-4184.031250,7.266998,0.064160,255,255,0
-4184.131836,5.779266,0.064170,255,255,0
-4184.332031,2.803802,0.064180,255,255,0
-4185.418945,1.773834,0.064190,255,255,0
-4186.506348,0.743866,0.064200,255,255,0
-4188.065430,-0.743866,0.064210,255,255,0
-4188.008301,-2.231598,0.064220,255,255,0
-4187.908203,-4.863739,0.064230,255,255,0
-4188.866699,-6.008148,0.064240,255,255,0
-4189.825195,-7.152557,0.064250,255,255,0
-4190.783691,-8.296967,0.064260,255,255,0
-4191.742188,-9.441376,0.064270,255,255,0
-4192.786133,-10.757446,0.064280,255,255,0
-4192.829102,-12.245178,0.064290,255,255,0
-4192.886230,-13.961792,0.064300,255,255,0
-4192.457031,-15.392303,0.064310,255,255,0
-4192.027832,-16.822815,0.064320,255,255,0
-4191.599121,-18.253326,0.064330,255,255,0
-4191.169922,-19.683838,0.064340,255,255,0
-4190.740723,-21.114349,0.064350,255,255,0
-4190.311523,-22.544861,0.064360,255,255,0
-4189.882324,-23.975372,0.064370,255,255,0
-4189.453125,-25.405884,0.064380,255,255,0
-4188.608887,-28.209686,0.064390,255,255,0
-4188.494629,-29.697418,0.064400,255,255,0
-4188.365723,-31.299591,0.064410,255,255,0
-4189.410156,-35.820007,0.064420,255,255,0
-1494.984619,-632.400513,0.064430,255,255,0
-1493.525513,-632.057190,0.064440,255,255,0
-1492.066406,-631.713867,0.064450,255,255,0
-1490.607300,-631.370544,0.064460,255,255,0
-1489.148193,-631.027222,0.064470,255,255,0
-1486.730591,-630.512207,0.064480,255,255,0
-1485.343018,-629.940063,0.064490,255,255,0
-1483.955322,-629.367798,0.064500,255,255,0
-1482.310303,-628.681152,0.064510,255,255,0
-1481.208740,-627.651245,0.064520,255,255,0
-1480.107300,-626.621216,0.064530,255,255,0
-1479.005859,-625.591309,0.064540,255,255,0
-1476.945923,-623.760254,0.064550,255,255,0
-1475.601196,-623.073608,0.064560,255,255,0
-1473.569824,-622.100830,0.064570,255,255,0
-1471.896118,-621.986389,0.064580,255,255,0
-1470.494263,-622.501343,0.064590,255,255,0
-1467.761963,-623.588562,0.064600,255,255,0
-1466.260010,-623.588562,0.064610,255,255,0
-1464.400269,-623.531372,0.064620,255,255,0
-1463.441895,-622.386963,0.064630,255,255,0
-1462.483398,-621.242554,0.064640,255,255,0
-1461.524902,-620.098145,0.064650,255,255,0
-1460.566528,-618.953735,0.064660,255,255,0
-1459.608032,-617.809326,0.064670,255,255,0
-1457.691162,-615.520508,0.064680,255,255,0
-1458.849854,-614.204407,0.064690,255,255,0
-1459.865601,-613.117188,0.064700,255,255,0
-1460.881226,-612.030029,0.064710,255,255,0
-1461.896851,-610.942871,0.064720,255,255,0
-1462.912598,-609.855652,0.064730,255,255,0
-1463.928223,-608.768433,0.064740,255,255,0
-1464.943848,-607.681274,0.064750,255,255,0
-1465.959595,-606.594116,0.064760,255,255,0
-1466.975220,-605.506897,0.064770,255,255,0
-1467.990845,-604.419678,0.064780,255,255,0
-1469.006592,-603.332520,0.064790,255,255,0
-1470.022217,-602.245361,0.064800,255,255,0
-1471.037842,-601.158142,0.064810,255,255,0
-1472.053467,-600.070923,0.064820,255,255,0
-1473.827393,-597.724915,0.064830,255,255,0
-1472.754517,-596.694946,0.064840,255,255,0
-1470.994995,-594.921143,0.064850,255,255,0
-1469.850586,-593.948364,0.064860,255,255,0
-1468.706177,-592.975586,0.064870,255,255,0
-1467.561768,-592.002869,0.064880,255,255,0
-1465.830811,-590.515137,0.064890,255,255,0
-1466.588989,-589.199097,0.064900,255,255,0
-1467.347168,-587.882996,0.064910,255,255,0
-1468.105347,-586.566895,0.064920,255,255,0
-1468.863525,-585.250854,0.064930,255,255,0
-1469.621704,-583.934814,0.064940,255,255,0
-1470.479980,-582.675903,0.064950,255,255,0
-1469.063721,-581.531494,0.064960,255,255,0
-1464.858032,-578.899414,0.064970,255,255,0
-1529.474243,-675.945312,0.064980,255,255,0
-1520.175903,-666.618347,0.064990,255,255,0
-2915.854492,521.736145,0.065000,255,255,0
-2913.365479,522.479980,0.065010,255,255,0
-2911.920654,522.880554,0.065020,255,255,0
-2910.475830,523.281128,0.065030,255,255,0
-2909.031006,523.681641,0.065040,255,255,0
-2907.586182,524.082153,0.065050,255,255,0
-2906.141357,524.482727,0.065060,255,255,0
-2904.696533,524.883301,0.065070,255,255,0
-2903.251709,525.283813,0.065080,255,255,0
-2901.806885,525.684326,0.065090,255,255,0
-2900.362061,526.084900,0.065100,255,255,0
-2898.917236,526.485474,0.065110,255,255,0
-2897.472412,526.885986,0.065120,255,255,0
-2896.027588,527.286499,0.065130,255,255,0
-2894.582764,527.687073,0.065140,255,255,0
-2893.137939,528.087646,0.065150,255,255,0
-2891.693115,528.488159,0.065160,255,255,0
-2890.248291,528.888672,0.065170,255,255,0
-2888.803467,529.289246,0.065180,255,255,0
-2887.358643,529.689819,0.065190,255,255,0
-2885.913818,530.090332,0.065200,255,255,0
-2883.353271,531.406372,0.065210,255,255,0
-2881.922607,531.864136,0.065220,255,255,0
-2880.492188,532.321899,0.065230,255,255,0
-2879.061768,532.779663,0.065240,255,255,0
-2877.631104,533.237427,0.065250,255,255,0
-2876.200684,533.695190,0.065260,255,255,0
-2874.770264,534.152954,0.065270,255,255,0
-2873.339600,534.610718,0.065280,255,255,0
-2871.909180,535.068481,0.065290,255,255,0
-2870.478516,535.526245,0.065300,255,255,0
-2869.048096,535.984009,0.065310,255,255,0
-2867.617676,536.441772,0.065320,255,255,0
-2866.187012,536.899536,0.065330,255,255,0
-2864.756592,537.357300,0.065340,255,255,0
-2863.326172,537.815063,0.065350,255,255,0
-2861.895508,538.272827,0.065360,255,255,0
-2860.465088,538.730591,0.065370,255,255,0
-2859.034424,539.188354,0.065380,255,255,0
-2857.604004,539.646118,0.065390,255,255,0
-2856.173584,540.103882,0.065400,255,255,0
-2854.742920,540.561646,0.065410,255,255,0
-2853.312500,541.019409,0.065420,255,255,0
-2851.882080,541.477173,0.065430,255,255,0
-2849.235596,541.648865,0.065440,255,255,0
-2847.862305,541.763306,0.065450,255,255,0
-2846.360107,541.706055,0.065460,255,255,0
-2844.858154,541.648865,0.065470,255,255,0
-2843.356201,541.591675,0.065480,255,255,0
-2841.854004,541.534424,0.065490,255,255,0
-2840.352051,541.477173,0.065500,255,255,0
-2838.850098,541.419983,0.065510,255,255,0
-2837.347900,541.362793,0.065520,255,255,0
-2835.845947,541.305542,0.065530,255,255,0
-2834.343994,541.248291,0.065540,255,255,0
-2832.841797,541.191101,0.065550,255,255,0
-2831.339844,541.133911,0.065560,255,255,0
-2829.837891,541.076660,0.065570,255,255,0
-2828.335693,541.019409,0.065580,255,255,0
-2826.833740,540.962219,0.065590,255,255,0
-2825.331787,540.905029,0.065600,255,255,0
-2823.829590,540.847778,0.065610,255,255,0
-2820.954346,541.019409,0.065620,255,255,0
-2819.495117,541.362793,0.065630,255,255,0
-2818.036133,541.706055,0.065640,255,255,0
-2816.576904,542.049438,0.065650,255,255,0
-2815.117920,542.392700,0.065660,255,255,0
-2813.658691,542.736084,0.065670,255,255,0
-2812.199707,543.079346,0.065680,255,255,0
-2810.740479,543.422729,0.065690,255,255,0
-2809.281250,543.765991,0.065700,255,255,0
-2807.822266,544.109375,0.065710,255,255,0
-2806.363037,544.452637,0.065720,255,255,0
-2804.904053,544.796021,0.065730,255,255,0
-2803.444824,545.139282,0.065740,255,255,0
-2801.985840,545.482666,0.065750,255,255,0
-2800.526611,545.825928,0.065760,255,255,0
-2799.067383,546.169312,0.065770,255,255,0
-2797.608398,546.512573,0.065780,255,255,0
-2796.149170,546.855957,0.065790,255,255,0
-2794.690186,547.199219,0.065800,255,255,0
-2793.230957,547.542603,0.065810,255,255,0
-2791.771973,547.885864,0.065820,255,255,0
-2790.312744,548.229248,0.065830,255,255,0
-2788.853760,548.572510,0.065840,255,255,0
-2787.394531,548.915894,0.065850,255,255,0
-2785.935303,549.259155,0.065860,255,255,0
-2784.476318,549.602539,0.065870,255,255,0
-2783.017090,549.945801,0.065880,255,255,0
-2781.558105,550.289185,0.065890,255,255,0
-2780.098877,550.632446,0.065900,255,255,0
-2778.639893,550.975830,0.065910,255,255,0
-2777.180664,551.319092,0.065920,255,255,0
-2775.492676,552.234619,0.065930,255,255,0
-2773.518555,552.921265,0.065940,255,255,0
-2772.088135,553.379028,0.065950,255,255,0
-2770.657471,553.836792,0.065960,255,255,0
-2768.282959,554.580688,0.065970,255,255,0
-2766.895264,555.152893,0.065980,255,255,0
-2765.350342,555.782349,0.065990,255,255,0
-2762.904053,556.812256,0.066000,255,255,0
-2760.930176,557.899475,0.066010,255,255,0
-2759.642578,558.643311,0.066020,255,255,0
-2758.355225,559.387207,0.066030,255,255,0
-2757.067627,560.131104,0.066040,255,255,0
-2755.007812,561.447144,0.066050,255,255,0
-2753.720215,568.370850,0.066060,255,255,0
-2917.542480,521.278381,0.066070,255,255,0
-2915.854492,521.736145,0.066080,255,255,0
-2969.469971,988.140137,0.066090,255,255,0
-2969.341309,988.826782,0.066100,255,255,0
-2947.397217,943.794250,0.066110,255,255,0
-2946.696289,944.480896,0.066120,255,255,0
-2946.696289,944.480896,0.066130,255,255,0
-2945.509033,945.453613,0.066140,255,255,0
-2945.509033,945.453613,0.066150,255,255,0
-2944.350342,946.426392,0.066160,255,255,0
-2943.191406,947.399170,0.066170,255,255,0
-2942.032715,948.371887,0.066180,255,255,0
-2940.874023,949.344604,0.066190,255,255,0
-2938.971436,950.775146,0.066200,255,255,0
-2938.241943,952.091187,0.066210,255,255,0
-2937.512451,953.407288,0.066220,255,255,0
-2936.739990,954.780579,0.066230,255,255,0
-2935.566895,955.696106,0.066240,255,255,0
-2934.393799,956.611633,0.066250,255,255,0
-2933.220947,957.527161,0.066260,255,255,0
-2932.047852,958.442688,0.066270,255,255,0
-2930.874756,959.358215,0.066280,255,255,0
-2929.701904,960.273743,0.066290,255,255,0
-2928.528809,961.189270,0.066300,255,255,0
-2927.355713,962.104797,0.066310,255,255,0
-2926.096924,963.249207,0.066320,255,255,0
-2924.709229,963.821411,0.066330,255,255,0
-2923.321777,964.393616,0.066340,255,255,0
-2921.934082,964.965820,0.066350,255,255,0
-2920.546631,965.538025,0.066360,255,255,0
-2919.158936,966.110229,0.066370,255,255,0
-2917.599609,966.854126,0.066380,255,255,0
-2917.227783,968.284607,0.066390,255,255,0
-2916.741455,970.172852,0.066400,255,255,0
-2915.997559,970.630615,0.066410,255,255,0
-2916.727051,971.889526,0.066420,255,255,0
-2916.412354,973.091125,0.066430,255,255,0
-2917.199219,973.548889,0.066440,255,255,0
-2917.499512,976.009399,0.066450,255,255,0
-2918.787109,976.753235,0.066460,255,255,0
-2920.074463,977.497070,0.066470,255,255,0
-2921.562256,978.412598,0.066480,255,255,0
-2924.437500,978.527100,0.066490,255,255,0
-2925.896729,978.870361,0.066500,255,255,0
-2927.355713,979.213745,0.066510,255,255,0
-2928.814941,979.557007,0.066520,255,255,0
-2931.361084,980.243652,0.066530,255,255,0
-2933.578613,981.445312,0.066540,255,255,0
-2935.924561,981.960327,0.066550,255,255,0
-2937.254883,982.646973,0.066560,255,255,0
-2938.585205,983.333618,0.066570,255,255,0
-2939.915771,984.020264,0.066580,255,255,0
-2941.703857,984.935791,0.066590,255,255,0
-2942.819580,985.965698,0.066600,255,255,0
-2944.264404,986.366272,0.066610,255,255,0
-2947.096924,987.167358,0.066620,255,255,0
-2948.141113,988.197327,0.066630,255,255,0
-2948.555908,988.769531,0.066640,255,255,0
-2969.341309,988.826782,0.066650,255,255,0
-2969.126709,989.170044,0.066660,255,255,0
-2948.555908,988.769531,0.066670,255,255,0
-3053.784424,869.979858,0.066680,255,255,0
-3053.126221,868.606567,0.066690,255,255,0
-3052.468262,867.233276,0.066700,255,255,0
-3051.724365,865.802734,0.066710,255,255,0
-3050.937744,864.543945,0.066720,255,255,0
-3049.621582,862.369507,0.066730,255,255,0
-3047.647461,860.309570,0.066740,255,255,0
-3046.331299,859.565735,0.066750,255,255,0
-3045.015381,858.821899,0.066760,255,255,0
-3042.855225,857.677490,0.066770,255,255,0
-3041.467773,857.105225,0.066780,255,255,0
-3040.080078,856.533081,0.066790,255,255,0
-3038.692383,855.960815,0.066800,255,255,0
-3037.304932,855.388672,0.066810,255,255,0
-3035.917236,854.816406,0.066820,255,255,0
-3034.529785,854.244263,0.066830,255,255,0
-3033.142090,853.671997,0.066840,255,255,0
-3030.481445,852.470398,0.066850,255,255,0
-3025.217041,850.925415,0.066860,255,255,0
-2999.181641,975.666016,0.066870,255,255,0
-2997.779785,975.151062,0.066880,255,255,0
-2996.377930,974.636108,0.066890,255,255,0
-2994.976074,974.121094,0.066900,255,255,0
-2993.574219,973.606079,0.066910,255,255,0
-2992.172363,973.091125,0.066920,255,255,0
-2990.770264,972.576172,0.066930,255,255,0
-2989.368408,972.061157,0.066940,255,255,0
-2987.966553,971.546143,0.066950,255,255,0
-2986.507324,970.802307,0.066960,255,255,0
-2985.134033,971.775024,0.066970,255,255,0
-2984.275879,972.290039,0.066980,255,255,0
-2983.088379,973.205566,0.066990,255,255,0
-2981.901123,974.121094,0.067000,255,255,0
-2980.713867,975.036621,0.067010,255,255,0
-2978.854248,976.524353,0.067020,255,255,0
-2977.681152,977.439880,0.067030,255,255,0
-2976.508057,978.355408,0.067040,255,255,0
-2975.335205,979.270935,0.067050,255,255,0
-2974.162109,980.186462,0.067060,255,255,0
-2972.545654,981.559753,0.067070,255,255,0
-2971.930420,982.933044,0.067080,255,255,0
-2970.843262,985.336304,0.067090,255,255,0
-2969.784668,986.194580,0.067100,255,255,0
-2969.469971,988.140137,0.067110,255,255,0
-4762.115234,-59.795380,0.067120,255,255,0
-4760.942383,-60.710907,0.067130,255,255,0
-4759.769531,-61.626434,0.067140,255,255,0
-4758.596191,-62.541962,0.067150,255,255,0
-4757.423340,-63.457489,0.067160,255,255,0
-4756.250488,-64.373016,0.067170,255,255,0
-4754.376465,-65.917969,0.067180,255,255,0
-4753.160645,-66.776276,0.067190,255,255,0
-4751.944336,-67.634583,0.067200,255,255,0
-4750.728516,-68.492889,0.067210,255,255,0
-4749.512695,-69.351196,0.067220,255,255,0
-4748.296875,-70.209503,0.067230,255,255,0
-4746.895020,-71.239471,0.067240,255,255,0
-4745.807617,-72.269440,0.067250,255,255,0
-4744.720703,-73.299408,0.067260,255,255,0
-4743.633301,-74.329376,0.067270,255,255,0
-4742.545898,-75.359344,0.067280,255,255,0
-4740.671875,-77.075958,0.067290,255,255,0
-4739.871094,-78.334808,0.067300,255,255,0
-4739.069824,-79.593658,0.067310,255,255,0
-4738.025879,-81.310272,0.067320,255,255,0
-4734.907227,-85.544586,0.067330,255,255,0
-3049.564453,-358.028412,0.067340,255,255,0
-3050.623047,-358.486176,0.067350,255,255,0
-3039.736816,-354.080200,0.067360,255,255,0
-3049.564453,-358.028412,0.067370,255,255,0
-3050.623047,-358.486176,0.067380,255,255,0
-3072.853027,-367.469788,0.067390,255,255,0
-3038.678223,-353.622437,0.067400,255,255,0
-3039.736816,-354.080200,0.067410,255,255,0
-3700.718994,-645.618408,0.067420,255,255,0
-3701.147949,-645.046265,0.067430,255,255,0
-3702.550049,-643.043518,0.067440,255,255,0
-3704.037598,-642.814636,0.067450,255,255,0
-3705.525391,-642.585754,0.067460,255,255,0
-3707.013184,-642.356873,0.067470,255,255,0
-3708.500977,-642.127991,0.067480,255,255,0
-3709.988525,-641.899109,0.067490,255,255,0
-3711.476318,-641.670227,0.067500,255,255,0
-3713.779541,-641.441345,0.067510,255,255,0
-3716.039551,-641.498535,0.067520,255,255,0
-3718.800537,-641.784668,0.067530,255,255,0
-3720.817627,-641.555786,0.067540,255,255,0
-3722.291016,-641.269653,0.067550,255,255,0
-3723.764404,-640.983582,0.067560,255,255,0
-3725.237793,-640.697510,0.067570,255,255,0
-3726.711182,-640.411377,0.067580,255,255,0
-3728.184814,-640.125244,0.067590,255,255,0
-3729.658203,-639.839172,0.067600,255,255,0
-3731.131592,-639.553101,0.067610,255,255,0
-3732.604980,-639.266968,0.067620,255,255,0
-3734.078369,-638.980835,0.067630,255,255,0
-3735.551758,-638.694763,0.067640,255,255,0
-3737.025146,-638.408691,0.067650,255,255,0
-3738.498779,-638.122559,0.067660,255,255,0
-3739.972168,-637.836426,0.067670,255,255,0
-3741.445557,-637.550354,0.067680,255,255,0
-3744.363770,-636.978149,0.067690,255,255,0
-3746.452393,-636.291504,0.067700,255,255,0
-3748.555176,-635.776489,0.067710,255,255,0
-3751.115723,-635.433228,0.067720,255,255,0
-3753.476074,-635.147095,0.067730,255,255,0
-3756.308594,-634.803772,0.067740,255,255,0
-3760.299805,-634.231567,0.067750,255,255,0
-3700.246826,-647.220581,0.067760,255,255,0
-3700.346924,-646.877319,0.067770,255,255,0
-3700.647461,-645.847290,0.067780,255,255,0
-3700.718994,-645.618408,0.067790,255,255,0
-3954.849121,234.889984,0.067800,255,255,0
-3956.265381,235.347748,0.067810,255,255,0
-3957.681641,235.805511,0.067820,255,255,0
-3959.097900,236.263275,0.067830,255,255,0
-3960.514160,236.721039,0.067840,255,255,0
-3961.930176,237.178802,0.067850,255,255,0
-3963.346436,237.636566,0.067860,255,255,0
-3964.762695,238.094330,0.067870,255,255,0
-3966.178955,238.552094,0.067880,255,255,0
-3967.595215,239.009857,0.067890,255,255,0
-3969.011230,239.467621,0.067900,255,255,0
-3970.427490,239.925385,0.067910,255,255,0
-3971.843750,240.383148,0.067920,255,255,0
-3973.260010,240.840912,0.067930,255,255,0
-3974.676025,241.298676,0.067940,255,255,0
-3977.336914,242.557526,0.067950,255,255,0
-3977.336914,244.674683,0.067960,255,255,0
-3976.092285,245.475769,0.067970,255,255,0
-3974.575928,246.505737,0.067980,255,255,0
-3974.161133,248.794556,0.067990,255,255,0
-3972.716309,250.797272,0.068000,255,255,0
-3973.045410,252.285004,0.068010,255,255,0
-3973.374268,253.772736,0.068020,255,255,0
-3973.803467,255.603790,0.068030,255,255,0
-3974.475830,256.919861,0.068040,255,255,0
-3975.234131,258.464813,0.068050,255,255,0
-3976.721680,258.350372,0.068060,255,255,0
-3978.209473,258.235931,0.068070,255,255,0
-3979.697266,258.121490,0.068080,255,255,0
-3981.185059,258.007050,0.068090,255,255,0
-3982.672607,257.892609,0.068100,255,255,0
-3984.160400,257.778168,0.068110,255,255,0
-3985.648193,257.663727,0.068120,255,255,0
-3987.636475,257.320404,0.068130,255,255,0
-3987.636475,258.636475,0.068140,255,255,0
-3987.050049,259.895325,0.068150,255,255,0
-3988.552002,259.895325,0.068160,255,255,0
-3990.054199,259.895325,0.068170,255,255,0
-3991.556152,259.895325,0.068180,255,255,0
-3993.058105,259.895325,0.068190,255,255,0
-3994.560303,259.895325,0.068200,255,255,0
-3996.062256,259.895325,0.068210,255,255,0
-3997.564209,259.895325,0.068220,255,255,0
-3999.066406,259.895325,0.068230,255,255,0
-4001.183594,259.952545,0.068240,255,255,0
-4002.671143,260.124207,0.068250,255,255,0
-4004.158936,260.295868,0.068260,255,255,0
-4006.647949,260.581970,0.068270,255,255,0
-4008.564941,261.039734,0.068280,255,255,0
-4009.709473,262.012482,0.068290,255,255,0
-4011.025391,263.099670,0.068300,255,255,0
-4013.657471,263.614655,0.068310,255,255,0
-4016.647461,263.557434,0.068320,255,255,0
-4017.648682,196.552277,0.068330,255,255,0
-4019.079102,196.094513,0.068340,255,255,0
-4020.581299,196.094513,0.068350,255,255,0
-4022.083252,196.094513,0.068360,255,255,0
-4023.585205,196.094513,0.068370,255,255,0
-4025.230469,196.094513,0.068380,255,255,0
-4044.227539,194.492340,0.068390,255,255,0
-4499.630859,524.311035,0.068400,255,255,0
-4501.004395,523.738892,0.068410,255,255,0
-4502.377441,523.166626,0.068420,255,255,0
-4503.750977,522.594482,0.068430,255,255,0
-4505.124023,522.022217,0.068440,255,255,0
-4506.497559,521.450073,0.068450,255,255,0
-4507.870605,520.877808,0.068460,255,255,0
-4509.244141,520.305664,0.068470,255,255,0
-4510.617188,519.733398,0.068480,255,255,0
-4511.990723,519.161255,0.068490,255,255,0
-4513.363770,518.588989,0.068500,255,255,0
-4514.737305,518.016846,0.068510,255,255,0
-4516.210449,517.215698,0.068520,255,255,0
-4516.811523,516.529053,0.068530,255,255,0
-4517.397949,513.954163,0.068540,255,255,0
-4517.455078,512.466431,0.068550,255,255,0
-4517.555176,509.891510,0.068560,255,255,0
-4518.484863,507.602692,0.068570,255,255,0
-4519.357910,506.401062,0.068580,255,255,0
-4520.773926,504.398346,0.068590,255,255,0
-4521.889648,503.368378,0.068600,255,255,0
-4523.549316,501.880646,0.068610,255,255,0
-4524.779297,501.022339,0.068620,255,255,0
-4526.381348,499.935150,0.068630,255,255,0
-4527.525879,498.962402,0.068640,255,255,0
-4528.670410,497.989655,0.068650,255,255,0
-4529.814941,497.016907,0.068660,255,255,0
-4531.374023,495.643616,0.068670,255,255,0
-4531.946289,494.785309,0.068680,255,255,0
-4533.262207,494.041443,0.068690,255,255,0
-4535.408203,492.897034,0.068700,255,255,0
-4539.670898,491.123199,0.068710,255,255,0
-4539.670898,491.123199,0.068720,255,255,0
-4544.634766,488.948822,0.068730,255,255,0
-4544.634766,488.948822,0.068740,255,255,0
-4545.993652,488.319397,0.068750,255,255,0
-4547.353027,487.689972,0.068760,255,255,0
-4548.711914,487.060547,0.068770,255,255,0
-4550.070801,486.431122,0.068780,255,255,0
-4551.429688,485.801697,0.068790,255,255,0
-4552.788574,485.172272,0.068800,255,255,0
-4554.147949,484.542847,0.068810,255,255,0
-4555.506836,483.913422,0.068820,255,255,0
-4556.865723,483.283997,0.068830,255,255,0
-4558.224609,482.654572,0.068840,255,255,0
-4559.583496,482.025146,0.068850,255,255,0
-4561.114258,481.109619,0.068860,255,255,0
-4563.760742,480.594635,0.068870,255,255,0
-4565.248535,480.422974,0.068880,255,255,0
-4566.736328,480.251312,0.068890,255,255,0
-4568.367188,480.079651,0.068900,255,255,0
-4569.869141,480.136871,0.068910,255,255,0
-4571.371094,480.194092,0.068920,255,255,0
-4574.346680,480.365753,0.068930,255,255,0
-4576.263672,479.850769,0.068940,255,255,0
-4578.867188,478.534698,0.068950,255,255,0
-4633.040527,443.401337,0.068960,255,255,0
-4634.485352,444.030762,0.068970,255,255,0
-4635.057617,444.889069,0.068980,255,255,0
-4634.556641,446.319580,0.068990,255,255,0
-4634.056152,447.750092,0.069000,255,255,0
-4633.555176,449.180603,0.069010,255,255,0
-4632.883301,451.011658,0.069020,255,255,0
-4631.109375,451.469421,0.069030,255,255,0
-4629.907715,452.156067,0.069040,255,255,0
-4629.478516,453.300476,0.069050,255,255,0
-4628.949219,454.730988,0.069060,255,255,0
-4628.419922,456.161499,0.069070,255,255,0
-4627.890625,457.592010,0.069080,255,255,0
-4626.932129,460.052490,0.069090,255,255,0
-4626.603027,461.711884,0.069100,255,255,0
-4627.733398,463.085175,0.069110,255,255,0
-4628.877441,464.057922,0.069120,255,255,0
-4630.021973,465.030670,0.069130,255,255,0
-4631.166504,466.003418,0.069140,255,255,0
-4632.797363,467.433929,0.069150,255,255,0
-4632.325195,468.521118,0.069160,255,255,0
-4630.866211,468.864441,0.069170,255,255,0
-4628.706055,469.322205,0.069180,255,255,0
-4627.976562,470.466614,0.069190,255,255,0
-4628.405762,471.897125,0.069200,255,255,0
-4628.834961,473.327637,0.069210,255,255,0
-4629.263672,474.758148,0.069220,255,255,0
-4629.692871,476.188660,0.069230,255,255,0
-4630.122070,477.619171,0.069240,255,255,0
-4630.551270,479.049683,0.069250,255,255,0
-4630.980469,480.480194,0.069260,255,255,0
-4631.409668,481.910706,0.069270,255,255,0
-4631.838867,483.341217,0.069280,255,255,0
-4632.268066,484.771729,0.069290,255,255,0
-4632.883301,486.774445,0.069300,255,255,0
-4633.211914,488.147736,0.069310,255,255,0
-4632.396484,489.406586,0.069320,255,255,0
-4631.581543,490.665436,0.069330,255,255,0
-4630.766113,491.924286,0.069340,255,255,0
-4629.950684,493.183136,0.069350,255,255,0
-4628.462891,495.529175,0.069360,255,255,0
-4627.118164,497.589111,0.069370,255,255,0
-4626.188477,497.932434,0.069380,255,255,0
-4624.714844,498.161316,0.069390,255,255,0
-4623.241211,498.390198,0.069400,255,255,0
-4621.768066,498.619080,0.069410,255,255,0
-4620.294434,498.847961,0.069420,255,255,0
-4618.821289,499.076843,0.069430,255,255,0
-4617.347656,499.305725,0.069440,255,255,0
-4615.874512,499.534607,0.069450,255,255,0
-4614.400879,499.763489,0.069460,255,255,0
-4612.927246,499.992371,0.069470,255,255,0
-4610.709961,500.621796,0.069480,255,255,0
-4609.250977,500.965118,0.069490,255,255,0
-4607.791992,501.308441,0.069500,255,255,0
-4606.333008,501.651764,0.069510,255,255,0
-4604.873535,501.995087,0.069520,255,255,0
-4603.414551,502.338409,0.069530,255,255,0
-4601.955566,502.681732,0.069540,255,255,0
-4600.109863,502.967834,0.069550,255,255,0
-4600.768066,504.341125,0.069560,255,255,0
-4601.426270,505.714417,0.069570,255,255,0
-4602.083984,507.087708,0.069580,255,255,0
-4603.171387,509.204865,0.069590,255,255,0
-4604.043945,510.406494,0.069600,255,255,0
-4604.916504,511.608124,0.069610,255,255,0
-4605.789062,512.809753,0.069620,255,255,0
-4606.919434,514.411926,0.069630,255,255,0
-4607.849121,515.613525,0.069640,255,255,0
-4611.024902,516.357422,0.069650,255,255,0
-4487.900879,704.383850,0.069660,255,255,0
-4489.187988,705.127686,0.069670,255,255,0
-4490.475586,705.871582,0.069680,255,255,0
-4491.763184,706.615479,0.069690,255,255,0
-4493.580078,707.759888,0.069700,255,255,0
-4494.867188,709.018677,0.069710,255,255,0
-4494.309570,709.991455,0.069720,255,255,0
-4493.064941,710.849731,0.069730,255,255,0
-4491.820312,711.708069,0.069740,255,255,0
-4490.575684,712.566406,0.069750,255,255,0
-4489.331055,713.424683,0.069760,255,255,0
-4488.086914,714.282959,0.069770,255,255,0
-4486.842285,715.141296,0.069780,255,255,0
-4485.511719,715.942383,0.069790,255,255,0
-4484.338867,716.857910,0.069800,255,255,0
-4483.165527,717.773438,0.069810,255,255,0
-4481.992676,718.688965,0.069820,255,255,0
-4480.819824,719.604492,0.069830,255,255,0
-4479.646484,720.520020,0.069840,255,255,0
-4478.473633,721.435547,0.069850,255,255,0
-4477.300781,722.351074,0.069860,255,255,0
-4476.127441,723.266602,0.069870,255,255,0
-4474.725586,724.582642,0.069880,255,255,0
-4472.894531,725.440979,0.069890,255,255,0
-4471.435547,725.784302,0.069900,255,255,0
-4469.976562,726.127625,0.069910,255,255,0
-4468.517090,726.470947,0.069920,255,255,0
-4467.058105,726.814270,0.069930,255,255,0
-4465.599121,727.157593,0.069940,255,255,0
-4464.140137,727.500916,0.069950,255,255,0
-4461.879883,727.844238,0.069960,255,255,0
-4460.478027,728.359253,0.069970,255,255,0
-4459.076172,728.874207,0.069980,255,255,0
-4457.673828,729.389160,0.069990,255,255,0
-4455.471191,730.190308,0.070000,255,255,0
-4440.150391,736.026733,0.070010,255,255,0
-4430.594238,731.506348,0.070020,255,255,0
-4431.953613,732.135742,0.070030,255,255,0
-4433.312500,732.765198,0.070040,255,255,0
-4434.671387,733.394653,0.070050,255,255,0
-4436.030273,734.024048,0.070060,255,255,0
-4437.389160,734.653442,0.070070,255,255,0
-4438.748535,735.282898,0.070080,255,255,0
-4440.150391,736.026733,0.070090,255,255,0
-4441.952637,736.827881,0.070100,255,255,0
-4443.183105,737.686157,0.070110,255,255,0
-4445.471680,739.288330,0.070120,255,255,0
-4446.802246,739.974976,0.070130,255,255,0
-4448.132324,740.661621,0.070140,255,255,0
-4449.462891,741.348267,0.070150,255,255,0
-4451.637207,742.435425,0.070160,255,255,0
-4452.910645,743.465454,0.070170,255,255,0
-4453.654297,745.697021,0.070180,255,255,0
-4453.683105,747.413635,0.070190,255,255,0
-4452.323730,749.988525,0.070200,255,255,0
-4451.637207,751.304626,0.070210,255,255,0
-4450.950684,752.620728,0.070220,255,255,0
-4450.264160,753.936768,0.070230,255,255,0
-4449.577148,755.252808,0.070240,255,255,0
-4448.833496,756.740601,0.070250,255,255,0
-4448.533203,758.228271,0.070260,255,255,0
-4448.232422,759.716064,0.070270,255,255,0
-4447.903809,761.203735,0.070280,255,255,0
-4448.933594,762.805908,0.070290,255,255,0
-4449.920898,763.950317,0.070300,255,255,0
-4450.907715,765.094727,0.070310,255,255,0
-4451.894531,766.239136,0.070320,255,255,0
-4452.881836,767.383545,0.070330,255,255,0
-4453.868652,768.527954,0.070340,255,255,0
-4454.855957,769.672363,0.070350,255,255,0
-4456.128906,771.045654,0.070360,255,255,0
-4457.144531,772.132874,0.070370,255,255,0
-4458.160156,773.220093,0.070380,255,255,0
-4459.176270,774.307251,0.070390,255,255,0
-4460.191895,775.394409,0.070400,255,255,0
-4461.207520,776.481628,0.070410,255,255,0
-4462.223145,777.568848,0.070420,255,255,0
-4463.682129,779.171021,0.070430,255,255,0
-4463.982422,779.800415,0.070440,255,255,0
-4465.212891,780.658691,0.070450,255,255,0
-4466.442871,781.517029,0.070460,255,255,0
-4467.673340,782.375366,0.070470,255,255,0
-4468.903320,783.233643,0.070480,255,255,0
-4470.133789,784.091919,0.070490,255,255,0
-4471.364258,784.950256,0.070500,255,255,0
-4473.624023,786.495239,0.070510,255,255,0
-4474.883301,787.296265,0.070520,255,255,0
-4476.142090,788.097412,0.070530,255,255,0
-4477.400879,788.898438,0.070540,255,255,0
-4479.160156,790.042847,0.070550,255,255,0
-4481.535156,791.301758,0.070560,255,255,0
-4483.208496,792.846680,0.070570,255,255,0
-4484.639160,793.304443,0.070580,255,255,0
-4486.069824,793.762207,0.070590,255,255,0
-4488.801758,794.620483,0.070600,255,255,0
-4490.275391,794.849365,0.070610,255,255,0
-4492.135254,795.192749,0.070620,255,255,0
-4493.637207,795.249939,0.070630,255,255,0
-4495.139160,795.307129,0.070640,255,255,0
-4496.884277,795.364380,0.070650,255,255,0
-4498.386230,795.307129,0.070660,255,255,0
-4500.475098,795.249939,0.070670,255,255,0
-4501.977051,795.307129,0.070680,255,255,0
-4503.479004,795.364380,0.070690,255,255,0
-4504.980957,795.421631,0.070700,255,255,0
-4506.482910,795.478821,0.070710,255,255,0
-4508.228516,795.593262,0.070720,255,255,0
-4509.715820,795.707703,0.070730,255,255,0
-4511.446777,795.879395,0.070740,255,255,0
-4512.949219,795.822144,0.070750,255,255,0
-4514.451172,795.764893,0.070760,255,255,0
-4515.953125,795.707703,0.070770,255,255,0
-4517.455078,795.650513,0.070780,255,255,0
-4518.957031,795.593262,0.070790,255,255,0
-4520.458984,795.536011,0.070800,255,255,0
-4522.132812,795.536011,0.070810,255,255,0
-4523.620605,795.364380,0.070820,255,255,0
-4525.108398,795.192749,0.070830,255,255,0
-4526.596191,795.021057,0.070840,255,255,0
-4528.083984,794.849365,0.070850,255,255,0
-4530.243652,794.448853,0.070860,255,255,0
-4531.731445,794.277222,0.070870,255,255,0
-4533.219238,794.105530,0.070880,255,255,0
-4534.707031,793.933838,0.070890,255,255,0
-4536.194824,793.762207,0.070900,255,255,0
-4537.839844,793.704956,0.070910,255,255,0
-4539.313477,793.418884,0.070920,255,255,0
-4540.786621,793.132812,0.070930,255,255,0
-4542.260254,792.846680,0.070940,255,255,0
-4543.762207,792.503357,0.070950,255,255,0
-4545.164062,791.988403,0.070960,255,255,0
-4546.565918,791.473389,0.070970,255,255,0
-4548.940430,790.500610,0.070980,255,255,0
-4550.199707,789.699585,0.070990,255,255,0
-4551.458496,788.898438,0.071000,255,255,0
-4552.888672,787.982910,0.071010,255,255,0
-4554.362305,787.639648,0.071020,255,255,0
-4555.835938,787.296265,0.071030,255,255,0
-4557.409180,787.010193,0.071040,255,255,0
-4558.896973,786.781311,0.071050,255,255,0
-4560.384766,786.552429,0.071060,255,255,0
-4562.001465,786.323547,0.071070,255,255,0
-4563.474609,786.094666,0.071080,255,255,0
-4565.491699,785.751343,0.071090,255,255,0
-4566.950684,785.408020,0.071100,255,255,0
-4568.410156,785.064697,0.071110,255,255,0
-4569.869141,784.721375,0.071120,255,255,0
-4571.328125,784.378052,0.071130,255,255,0
-4573.216309,783.863037,0.071140,255,255,0
-4574.976074,783.634155,0.071150,255,255,0
-4576.463867,783.863037,0.071160,255,255,0
-4577.951660,784.091919,0.071170,255,255,0
-4579.438965,784.320801,0.071180,255,255,0
-4580.926758,784.549683,0.071190,255,255,0
-4582.414551,784.778564,0.071200,255,255,0
-4583.902344,785.007446,0.071210,255,255,0
-4585.390137,785.236328,0.071220,255,255,0
-4587.250000,785.579712,0.071230,255,255,0
-4589.009277,785.579712,0.071240,255,255,0
-4590.482910,785.350830,0.071250,255,255,0
-4591.956055,785.121948,0.071260,255,255,0
-4593.429688,784.893066,0.071270,255,255,0
-4594.902832,784.664185,0.071280,255,255,0
-4597.449219,784.149170,0.071290,255,255,0
-4606.719238,781.517029,0.071300,255,255,0
-4397.678223,837.993652,0.071310,255,255,0
-4398.965820,837.249756,0.071320,255,255,0
-4400.253418,836.505859,0.071330,255,255,0
-4402.284668,835.247070,0.071340,255,255,0
-4403.643555,834.617615,0.071350,255,255,0
-4405.002441,833.988159,0.071360,255,255,0
-4406.361816,833.358765,0.071370,255,255,0
-4407.720703,832.729370,0.071380,255,255,0
-4409.079590,832.099915,0.071390,255,255,0
-4410.438477,831.470459,0.071400,255,255,0
-4411.797363,830.841064,0.071410,255,255,0
-4413.156738,830.211670,0.071420,255,255,0
-4414.815918,829.296143,0.071430,255,255,0
-4416.231934,828.781128,0.071440,255,255,0
-4418.735352,827.865601,0.071450,255,255,0
-4419.779785,826.778442,0.071460,255,255,0
-4421.081543,825.462341,0.071470,255,255,0
-4422.512207,825.004578,0.071480,255,255,0
-4423.942383,824.546814,0.071490,255,255,0
-4425.373047,824.089050,0.071500,255,255,0
-4427.204102,823.631287,0.071510,255,255,0
-4428.706055,823.688477,0.071520,255,255,0
-4430.208008,823.745728,0.071530,255,255,0
-4431.710449,823.802979,0.071540,255,255,0
-4433.212402,823.860168,0.071550,255,255,0
-4434.714355,823.917358,0.071560,255,255,0
-4436.216309,823.974609,0.071570,255,255,0
-4437.718262,824.031860,0.071580,255,255,0
-4439.220215,824.089050,0.071590,255,255,0
-4441.623535,824.031860,0.071600,255,255,0
-4443.125488,824.089050,0.071610,255,255,0
-4444.627930,824.146240,0.071620,255,255,0
-4446.129883,824.203491,0.071630,255,255,0
-4448.676270,824.432373,0.071640,255,255,0
-4450.178223,824.375122,0.071650,255,255,0
-4451.680176,824.317932,0.071660,255,255,0
-4453.182129,824.260742,0.071670,255,255,0
-4454.684082,824.203491,0.071680,255,255,0
-4456.186523,824.146240,0.071690,255,255,0
-4458.675293,824.031860,0.071700,255,255,0
-4460.163086,824.203491,0.071710,255,255,0
-4462.637695,824.546814,0.071720,255,255,0
-4464.068359,825.004578,0.071730,255,255,0
-4465.499023,825.462341,0.071740,255,255,0
-4467.844727,826.206177,0.071750,255,255,0
-4469.347168,826.148987,0.071760,255,255,0
-4470.849121,826.091797,0.071770,255,255,0
-4472.351074,826.034546,0.071780,255,255,0
-4473.795898,825.634033,0.071790,255,255,0
-4475.240723,825.233459,0.071800,255,255,0
-4477.286133,824.604004,0.071810,255,255,0
-4478.673828,824.031860,0.071820,255,255,0
-4480.061523,823.459595,0.071830,255,255,0
-4482.808105,822.372437,0.071840,255,255,0
-4484.138672,821.685791,0.071850,255,255,0
-4485.468750,820.999146,0.071860,255,255,0
-4486.799316,820.312500,0.071870,255,255,0
-4488.129395,819.625854,0.071880,255,255,0
-4489.459961,818.939209,0.071890,255,255,0
-4490.790527,818.252563,0.071900,255,255,0
-4492.120605,817.565918,0.071910,255,255,0
-4493.451172,816.879272,0.071920,255,255,0
-4494.781250,816.192627,0.071930,255,255,0
-4496.111816,815.505981,0.071940,255,255,0
-4497.828613,814.476013,0.071950,255,255,0
-4499.173340,813.789368,0.071960,255,255,0
-4501.519043,812.644958,0.071970,255,255,0
-4503.006836,812.416077,0.071980,255,255,0
-4504.494629,812.187195,0.071990,255,255,0
-4505.982422,811.958313,0.072000,255,255,0
-4507.470215,811.729431,0.072010,255,255,0
-4508.958008,811.500549,0.072020,255,255,0
-4510.445801,811.271667,0.072030,255,255,0
-4511.933105,811.042786,0.072040,255,255,0
-4513.420898,810.813904,0.072050,255,255,0
-4514.908691,810.585022,0.072060,255,255,0
-4516.396484,810.356140,0.072070,255,255,0
-4519.114258,810.127258,0.072080,255,255,0
-4520.602051,810.298950,0.072090,255,255,0
-4522.089844,810.470581,0.072100,255,255,0
-4523.577637,810.642212,0.072110,255,255,0
-4525.065430,810.813904,0.072120,255,255,0
-4527.182617,810.985596,0.072130,255,255,0
-4528.927734,811.557739,0.072140,255,255,0
-4530.415527,811.729431,0.072150,255,255,0
-4531.903320,811.901123,0.072160,255,255,0
-4533.391113,812.072754,0.072170,255,255,0
-4535.193359,812.301636,0.072180,255,255,0
-4536.695312,812.416077,0.072190,255,255,0
-4538.426270,812.530518,0.072200,255,255,0
-4539.899902,812.244385,0.072210,255,255,0
-4541.974121,811.786621,0.072220,255,255,0
-4543.461914,811.557739,0.072230,255,255,0
-4544.949707,811.328857,0.072240,255,255,0
-4546.437500,811.099976,0.072250,255,255,0
-4549.198242,810.756714,0.072260,255,255,0
-4550.442871,809.955566,0.072270,255,255,0
-4551.687012,809.154541,0.072280,255,255,0
-4552.931641,808.353394,0.072290,255,255,0
-4554.176270,807.552368,0.072300,255,255,0
-4555.420898,806.751221,0.072310,255,255,0
-4556.665527,805.950195,0.072320,255,255,0
-4557.910156,805.149048,0.072330,255,255,0
-4559.154297,804.348022,0.072340,255,255,0
-4560.398926,803.546875,0.072350,255,255,0
-4562.015625,802.288086,0.072360,255,255,0
-4563.989746,802.059204,0.072370,255,255,0
-4566.335449,802.574158,0.072380,255,255,0
-4567.766113,803.031921,0.072390,255,255,0
-4569.196777,803.489685,0.072400,255,255,0
-4571.084961,804.004639,0.072410,255,255,0
-4573.531250,804.290771,0.072420,255,255,0
-4574.990234,803.947449,0.072430,255,255,0
-4577.036133,803.432495,0.072440,255,255,0
-4578.466309,802.974731,0.072450,255,255,0
-4579.896973,802.516968,0.072460,255,255,0
-4581.327637,802.059204,0.072470,255,255,0
-4583.802246,801.258057,0.072480,255,255,0
-4585.104004,800.514221,0.072490,255,255,0
-4586.405762,799.770386,0.072500,255,255,0
-4588.594238,798.568726,0.072510,255,255,0
-4589.738770,797.595947,0.072520,255,255,0
-4590.883301,796.623230,0.072530,255,255,0
-4593.114746,794.734985,0.072540,255,255,0
-4594.187500,793.704956,0.072550,255,255,0
-4595.260742,792.675049,0.072560,255,255,0
-4596.333496,791.645020,0.072570,255,255,0
-4597.406250,790.615112,0.072580,255,255,0
-4598.479492,789.585083,0.072590,255,255,0
-4599.552246,788.555176,0.072600,255,255,0
-4600.625000,787.525146,0.072610,255,255,0
-4601.697754,786.495239,0.072620,255,255,0
-4603.114258,784.950256,0.072630,255,255,0
-4604.201172,783.920288,0.072640,255,255,0
-4605.288574,782.890320,0.072650,255,255,0
-4606.719238,781.517029,0.072660,255,255,0
-4608.035156,780.773193,0.072670,255,255,0
-4609.351074,780.029297,0.072680,255,255,0
-4610.666992,779.285400,0.072690,255,255,0
-4611.983398,778.541565,0.072700,255,255,0
-4614.257812,777.339966,0.072710,255,255,0
-4617.018555,776.424438,0.072720,255,255,0
-4618.492188,776.138306,0.072730,255,255,0
-4619.965332,775.852173,0.072740,255,255,0
-4622.454590,775.451660,0.072750,255,255,0
-4636.916992,774.478882,0.072760,255,255,0
-4393.601562,766.696899,0.072770,255,255,0
-4395.103516,766.639709,0.072780,255,255,0
-4396.605469,766.582520,0.072790,255,255,0
-4398.107422,766.525269,0.072800,255,255,0
-4399.609375,766.468018,0.072810,255,255,0
-4401.111816,766.410828,0.072820,255,255,0
-4402.613770,766.353638,0.072830,255,255,0
-4404.115723,766.296387,0.072840,255,255,0
-4406.361816,766.124756,0.072850,255,255,0
-4407.863770,766.181946,0.072860,255,255,0
-4409.365723,766.239136,0.072870,255,255,0
-4410.867676,766.296387,0.072880,255,255,0
-4412.770508,766.353638,0.072890,255,255,0
-4414.272461,766.468018,0.072900,255,255,0
-4415.774414,766.582520,0.072910,255,255,0
-4418.249023,766.754150,0.072920,255,255,0
-4419.722656,766.468018,0.072930,255,255,0
-4421.195801,766.181946,0.072940,255,255,0
-4424.057129,765.666992,0.072950,255,255,0
-4425.473145,765.209229,0.072960,255,255,0
-4426.889648,764.751465,0.072970,255,255,0
-4428.305664,764.293701,0.072980,255,255,0
-4429.721680,763.835938,0.072990,255,255,0
-4431.652832,763.092041,0.073000,255,255,0
-4433.112305,762.748718,0.073010,255,255,0
-4434.571289,762.405396,0.073020,255,255,0
-4437.131836,761.890381,0.073030,255,255,0
-4447.903809,761.203735,0.073040,255,255,0
-3892.936768,957.756042,0.073050,255,255,0
-3893.895264,956.611633,0.073060,255,255,0
-3894.853516,955.467224,0.073070,255,255,0
-3895.812012,954.322815,0.073080,255,255,0
-3896.770508,953.178406,0.073090,255,255,0
-3898.558594,950.946777,0.073100,255,255,0
-3898.000732,946.941406,0.073110,255,255,0
-3857.231201,954.036743,0.073120,255,255,0
-3856.387207,955.295532,0.073130,255,255,0
-3855.543213,956.554443,0.073140,255,255,0
-3854.513184,957.984924,0.073150,255,255,0
-3853.139893,958.614380,0.073160,255,255,0
-3851.766602,959.243774,0.073170,255,255,0
-3850.393311,959.873169,0.073180,255,255,0
-3849.020020,960.502625,0.073190,255,255,0
-3847.646729,961.132080,0.073200,255,255,0
-3846.273438,961.761475,0.073210,255,255,0
-3844.900146,962.390869,0.073220,255,255,0
-3843.526855,963.020325,0.073230,255,255,0
-3841.338135,963.878662,0.073240,255,255,0
-3839.893311,963.478088,0.073250,255,255,0
-3837.375732,962.848633,0.073260,255,255,0
-3833.928223,965.251953,0.073270,255,255,0
-3909.058594,940.647095,0.073280,255,255,0
-3907.756836,941.390991,0.073290,255,255,0
-3906.455078,942.134888,0.073300,255,255,0
-3905.153320,942.878723,0.073310,255,255,0
-3903.851562,943.622559,0.073320,255,255,0
-3902.549805,944.366455,0.073330,255,255,0
-3901.248047,945.110352,0.073340,255,255,0
-3899.946289,945.854187,0.073350,255,255,0
-3898.000732,946.941406,0.073360,255,255,0
-3895.425781,946.083069,0.073370,255,255,0
-3893.937988,945.854187,0.073380,255,255,0
-3892.235840,945.625305,0.073390,255,255,0
-3890.833740,946.140259,0.073400,255,255,0
-3889.431885,946.655273,0.073410,255,255,0
-3888.030029,947.170288,0.073420,255,255,0
-3886.628174,947.685242,0.073430,255,255,0
-3885.226318,948.200195,0.073440,255,255,0
-3882.522461,949.172974,0.073450,255,255,0
-3881.192139,949.859619,0.073460,255,255,0
-3879.432617,950.775146,0.073470,255,255,0
-3877.987793,951.175659,0.073480,255,255,0
-3876.542969,951.576233,0.073490,255,255,0
-3875.098145,951.976807,0.073500,255,255,0
-3872.709229,952.548950,0.073510,255,255,0
-3871.364502,953.235596,0.073520,255,255,0
-3870.020020,953.922241,0.073530,255,255,0
-3868.675293,954.608887,0.073540,255,255,0
-3867.330566,955.295532,0.073550,255,255,0
-3865.342041,956.153870,0.073560,255,255,0
-3862.709961,956.554443,0.073570,255,255,0
-3871.922607,289.421082,0.073580,255,255,0
-3870.420410,289.478302,0.073590,255,255,0
-3867.559326,289.649963,0.073600,255,255,0
-3866.085938,289.936066,0.073610,255,255,0
-3864.354980,290.336609,0.073620,255,255,0
-3862.080566,290.222168,0.073630,255,255,0
-3860.592773,290.393829,0.073640,255,255,0
-3859.105225,290.565491,0.073650,255,255,0
-3857.502930,290.737152,0.073660,255,255,0
-3855.428711,291.824341,0.073670,255,255,0
-3854.398682,292.911530,0.073680,255,255,0
-3853.368652,293.998718,0.073690,255,255,0
-3852.338867,295.085907,0.073700,255,255,0
-3851.308838,296.173096,0.073710,255,255,0
-3850.278809,297.260284,0.073720,255,255,0
-3848.319092,299.434662,0.073730,255,255,0
-3847.417725,300.636292,0.073740,255,255,0
-3846.516602,301.837921,0.073750,255,255,0
-3844.914551,303.955078,0.073760,255,255,0
-3843.612793,304.698944,0.073770,255,255,0
-3842.310791,305.442810,0.073780,255,255,0
-3841.009033,306.186676,0.073790,255,255,0
-3838.562988,307.617188,0.073800,255,255,0
-3839.006348,310.249329,0.073810,255,255,0
-3838.963623,313.167572,0.073820,255,255,0
-3839.163818,314.025879,0.073830,255,255,0
-3840.479736,314.769745,0.073840,255,255,0
-3842.053467,315.628052,0.073850,255,255,0
-3842.210693,317.687988,0.073860,255,255,0
-3843.297852,318.717957,0.073870,255,255,0
-3844.385254,319.747925,0.073880,255,255,0
-3845.615479,320.949554,0.073890,255,255,0
-3846.187500,322.322845,0.073900,255,255,0
-3847.246094,323.638916,0.073910,255,255,0
-3849.277588,324.440002,0.073920,255,255,0
-3850.693604,325.183868,0.073930,255,255,0
-3852.181396,325.355530,0.073940,255,255,0
-3855.013916,325.641632,0.073950,255,255,0
-3856.687500,326.213837,0.073960,255,255,0
-3859.276855,325.012207,0.073970,255,255,0
-3860.778809,325.069427,0.073980,255,255,0
-3862.280762,325.126648,0.073990,255,255,0
-3863.639893,324.497223,0.074000,255,255,0
-3865.027344,323.867798,0.074010,255,255,0
-3867.416504,325.126648,0.074020,255,255,0
-3869.547852,326.900482,0.074030,255,255,0
-2044.286743,968.570679,0.074040,255,255,0
-2043.471313,967.254639,0.074050,255,255,0
-2042.570068,966.052979,0.074060,255,255,0
-2041.668945,964.851379,0.074070,255,255,0
-2040.767700,963.649780,0.074080,255,255,0
-2039.852173,962.448120,0.074090,255,255,0
-2033.271729,955.295532,0.074100,255,255,0
-2741.975830,989.742310,0.074110,255,255,0
-2743.077393,989.856689,0.074120,255,255,0
-2744.593506,989.456177,0.074130,255,255,0
-2744.865479,988.998413,0.074140,255,255,0
-2743.892578,988.082886,0.074150,255,255,0
-2744.164551,987.682373,0.074160,255,255,0
-2749.013916,988.597900,0.074170,255,255,0
-2746.539062,987.682373,0.074180,255,255,0
-2744.164551,987.682373,0.074190,255,255,0
-3012.614258,861.167908,0.074200,255,255,0
-3010.439941,862.712891,0.074210,255,255,0
-3025.217041,850.925415,0.074220,255,255,0
-3022.656494,850.753784,0.074230,255,255,0
-3010.439941,862.712891,0.074240,255,255,0
-3009.038086,863.227844,0.074250,255,255,0
-3007.635986,863.742798,0.074260,255,255,0
-3006.234131,864.257812,0.074270,255,255,0
-3004.832275,864.772827,0.074280,255,255,0
-3003.430420,865.287781,0.074290,255,255,0
-3002.028564,865.802734,0.074300,255,255,0
-2999.525146,866.775513,0.074310,255,255,0
-2998.080322,867.176025,0.074320,255,255,0
-2996.635498,867.576599,0.074330,255,255,0
-2995.190674,867.977173,0.074340,255,255,0
-2993.745850,868.377686,0.074350,255,255,0
-2992.301025,868.778198,0.074360,255,255,0
-2990.856201,869.178772,0.074370,255,255,0
-2989.411377,869.579346,0.074380,255,255,0
-2987.966553,869.979858,0.074390,255,255,0
-2985.320068,870.952637,0.074400,255,255,0
-2986.049561,872.268677,0.074410,255,255,0
-2986.779297,873.584717,0.074420,255,255,0
-2987.508789,874.900818,0.074430,255,255,0
-2988.238281,876.216919,0.074440,255,255,0
-2989.025146,877.532959,0.074450,255,255,0
-2988.066650,878.677368,0.074460,255,255,0
-2987.108154,879.821777,0.074470,255,255,0
-2985.877930,881.309509,0.074480,255,255,0
-2984.447510,881.767273,0.074490,255,255,0
-2983.017090,882.225037,0.074500,255,255,0
-2981.586426,882.682800,0.074510,255,255,0
-2980.156006,883.140564,0.074520,255,255,0
-2977.709717,883.941650,0.074530,255,255,0
-2976.722656,885.086060,0.074540,255,255,0
-2975.735596,886.230469,0.074550,255,255,0
-2974.748535,887.374878,0.074560,255,255,0
-2973.761475,888.519287,0.074570,255,255,0
-2972.774414,889.663696,0.074580,255,255,0
-2971.787354,890.808105,0.074590,255,255,0
-2970.371338,892.410278,0.074600,255,255,0
-2970.485596,893.898010,0.074610,255,255,0
-2970.600098,895.385742,0.074620,255,255,0
-2970.814697,898.189575,0.074630,255,255,0
-2969.670410,899.162292,0.074640,255,255,0
-2967.796387,900.764465,0.074650,255,255,0
-2966.980957,902.023315,0.074660,255,255,0
-2966.165527,903.282166,0.074670,255,255,0
-2965.350098,904.541016,0.074680,255,255,0
-2964.491943,905.914307,0.074690,255,255,0
-2963.147217,906.600952,0.074700,255,255,0
-2961.802490,907.287598,0.074710,255,255,0
-2959.198975,908.546448,0.074720,255,255,0
-2958.054443,910.892456,0.074730,255,255,0
-2959.485107,911.350220,0.074740,255,255,0
-2960.915527,911.807983,0.074750,255,255,0
-2962.574951,912.322998,0.074760,255,255,0
-2963.089844,913.925171,0.074770,255,255,0
-2961.845459,914.783447,0.074780,255,255,0
-2960.443604,915.698975,0.074790,255,255,0
-2958.984375,916.042358,0.074800,255,255,0
-2956.309326,916.729004,0.074810,255,255,0
-2956.180664,918.216675,0.074820,255,255,0
-2956.051758,919.704468,0.074830,255,255,0
-2955.865967,921.707153,0.074840,255,255,0
-2955.179199,923.023193,0.074850,255,255,0
-2954.378174,924.625366,0.074860,255,255,0
-2953.062012,925.369263,0.074870,255,255,0
-2951.660156,926.113159,0.074880,255,255,0
-2950.272461,928.344727,0.074890,255,255,0
-2951.245361,930.633545,0.074900,255,255,0
-2952.618652,931.205750,0.074910,255,255,0
-2954.993164,932.235718,0.074920,255,255,0
-2955.636963,933.837891,0.074930,255,255,0
-2954.821533,935.897827,0.074940,255,255,0
-2953.577148,938.072205,0.074950,255,255,0
-2947.397217,943.794250,0.074960,255,255,0
-3022.656494,850.753784,0.074970,255,255,0
-3022.355957,852.241516,0.074980,255,255,0
-3021.898193,854.415894,0.074990,255,255,0
-3020.582275,856.132507,0.075000,255,255,0
-3019.352051,856.990845,0.075010,255,255,0
-3018.121826,857.849121,0.075020,255,255,0
-3016.490967,858.936279,0.075030,255,255,0
-3012.614258,861.167908,0.075040,255,255,0
-3102.335938,963.420898,0.075050,255,255,0
-3100.862549,963.706970,0.075060,255,255,0
-3099.389160,963.993042,0.075070,255,255,0
-3097.915527,964.279175,0.075080,255,255,0
-3096.442139,964.565308,0.075090,255,255,0
-3094.968750,964.851379,0.075100,255,255,0
-3093.495361,965.137451,0.075110,255,255,0
-3092.021973,965.423584,0.075120,255,255,0
-3090.548584,965.709717,0.075130,255,255,0
-3087.959229,966.281860,0.075140,255,255,0
-3086.643311,966.224670,0.075150,255,255,0
-3079.404785,960.273743,0.075160,255,255,0
-3261.294434,919.818848,0.075170,255,255,0
-3259.806641,920.047729,0.075180,255,255,0
-3258.318848,920.276611,0.075190,255,255,0
-3256.831055,920.505493,0.075200,255,255,0
-3255.343506,920.734375,0.075210,255,255,0
-3253.855713,920.963257,0.075220,255,255,0
-3252.367920,921.192139,0.075230,255,255,0
-3250.880127,921.421021,0.075240,255,255,0
-3249.392578,921.649902,0.075250,255,255,0
-3247.904785,921.878784,0.075260,255,255,0
-3246.416992,922.107666,0.075270,255,255,0
-3244.929199,922.336548,0.075280,255,255,0
