X,Y,Z,R,G,B
151934.187500,817285.687500,0.002123,0,255,255
151934.218750,817285.562500,0.002124,0,255,255
151934.265625,817285.125000,0.002125,0,255,255
151934.296875,817284.875000,0.002126,0,255,255
151934.359375,817284.375000,0.002127,0,255,255
151934.312500,817284.187500,0.002128,0,255,255
151934.234375,817284.000000,0.002129,0,255,255
151934.359375,817283.687500,0.002130,0,255,255
151934.500000,817283.562500,0.002131,0,255,255
151934.484375,817283.125000,0.002132,0,255,255
151934.531250,817282.875000,0.002133,0,255,255
151934.562500,817282.500000,0.002134,0,255,255
151934.734375,817282.375000,0.002135,0,255,255
151934.718750,817282.187500,0.002136,0,255,255
151934.609375,817282.062500,0.002137,0,255,255
151934.671875,817281.687500,0.002138,0,255,255
151934.656250,817281.250000,0.002139,0,255,255
151934.796875,817280.812500,0.002140,0,255,255
151934.859375,817280.500000,0.002141,0,255,255
151935.218750,817279.937500,0.002142,0,255,255
151935.578125,817279.500000,0.002143,0,255,255
151935.781250,817279.187500,0.002144,0,255,255
151935.859375,817279.062500,0.002145,0,255,255
151936.015625,817278.937500,0.002146,0,255,255
151936.250000,817278.625000,0.002147,0,255,255
151936.562500,817278.375000,0.002148,0,255,255
151936.531250,817278.312500,0.002149,0,255,255
151936.562500,817278.187500,0.002150,0,255,255
151936.546875,817277.937500,0.002151,0,255,255
151936.625000,817277.875000,0.002152,0,255,255
151936.953125,817277.687500,0.002153,0,255,255
151936.968750,817277.312500,0.002154,0,255,255
151937.203125,817277.125000,0.002155,0,255,255
151937.140625,817276.812500,0.002156,0,255,255
151937.187500,817276.687500,0.002157,0,255,255
151937.203125,817276.250000,0.002158,0,255,255
151937.234375,817276.562500,0.002159,0,255,255
151937.359375,817276.250000,0.002160,0,255,255
151937.406250,817276.062500,0.002161,0,255,255
151937.625000,817275.812500,0.002162,0,255,255
151937.500000,817275.500000,0.002163,0,255,255
151937.578125,817275.437500,0.002164,0,255,255
151937.593750,817275.250000,0.002165,0,255,255
151937.593750,817275.062500,0.002166,0,255,255
151937.640625,817274.750000,0.002167,0,255,255
151929.375000,817291.312500,0.002168,0,255,255
151929.625000,817291.312500,0.002169,0,255,255
151929.718750,817291.312500,0.002170,0,255,255
151929.796875,817291.312500,0.002171,0,255,255
151929.843750,817291.312500,0.002172,0,255,255
151929.921875,817291.312500,0.002173,0,255,255
151929.843750,817291.312500,0.002174,0,255,255
151929.203125,817291.312500,0.002175,0,255,255
151928.593750,817291.312500,0.002176,0,255,255
151928.203125,817291.250000,0.002177,0,255,255
151928.156250,817291.187500,0.002178,0,255,255
151928.656250,817291.125000,0.002179,0,255,255
151929.312500,817291.125000,0.002180,0,255,255
151928.546875,817289.812500,0.002181,0,255,255
151928.453125,817289.625000,0.002182,0,255,255
151928.390625,817288.562500,0.002183,0,255,255
151927.625000,817289.000000,0.002184,0,255,255
151927.625000,817289.000000,0.002185,0,255,255
151927.671875,817289.000000,0.002186,0,255,255
151927.734375,817289.000000,0.002187,0,255,255
151927.468750,817289.000000,0.002188,0,255,255
151927.171875,817288.937500,0.002189,0,255,255
151926.765625,817288.812500,0.002190,0,255,255
151926.390625,817288.500000,0.002191,0,255,255
151926.421875,817288.500000,0.002192,0,255,255
151926.390625,817288.500000,0.002193,0,255,255
151926.390625,817288.500000,0.002194,0,255,255
151926.390625,817288.500000,0.002195,0,255,255
151926.390625,817288.500000,0.002196,0,255,255
151926.390625,817288.500000,0.002197,0,255,255
151926.390625,817288.500000,0.002198,0,255,255
151926.390625,817288.500000,0.002199,0,255,255
151926.390625,817288.500000,0.002200,0,255,255
151926.593750,817288.500000,0.002201,0,255,255
151927.000000,817288.312500,0.002202,0,255,255
151927.765625,817288.125000,0.002203,0,255,255
151927.703125,817288.187500,0.002204,0,255,255
151927.437500,817288.125000,0.002205,0,255,255
151927.375000,817288.062500,0.002206,0,255,255
151927.562500,817287.875000,0.002207,0,255,255
151927.500000,817287.812500,0.002208,0,255,255
151927.484375,817287.812500,0.002209,0,255,255
151927.531250,817287.750000,0.002210,0,255,255
151927.796875,817287.750000,0.002211,0,255,255
151928.078125,817287.750000,0.002212,0,255,255
151928.515625,817287.812500,0.002213,0,255,255
151928.796875,817287.750000,0.002214,0,255,255
151927.750000,817286.687500,0.002215,0,255,255
151927.593750,817286.625000,0.002216,0,255,255
151926.828125,817286.562500,0.002217,0,255,255
151926.562500,817286.625000,0.002218,0,255,255
151926.359375,817286.812500,0.002219,0,255,255
151926.250000,817286.875000,0.002220,0,255,255
151926.390625,817286.875000,0.002221,0,255,255
151926.703125,817286.937500,0.002222,0,255,255
151926.906250,817286.937500,0.002223,0,255,255
151927.015625,817286.937500,0.002224,0,255,255
151926.937500,817286.937500,0.002225,0,255,255
151926.875000,817286.875000,0.002226,0,255,255
151926.734375,817286.875000,0.002227,0,255,255
151926.296875,817286.937500,0.002228,0,255,255
151926.250000,817286.937500,0.002229,0,255,255
151926.125000,817287.000000,0.002230,0,255,255
151926.093750,817287.187500,0.002231,0,255,255
151926.031250,817287.250000,0.002232,0,255,255
151925.859375,817287.437500,0.002233,0,255,255
151925.750000,817287.562500,0.002234,0,255,255
151925.703125,817287.625000,0.002235,0,255,255
151925.375000,817287.750000,0.002236,0,255,255
151925.453125,817287.687500,0.002237,0,255,255
151925.609375,817287.625000,0.002238,0,255,255
151925.750000,817287.562500,0.002239,0,255,255
151926.062500,817287.437500,0.002240,0,255,255
151926.390625,817287.375000,0.002241,0,255,255
151926.703125,817287.250000,0.002242,0,255,255
151927.000000,817287.062500,0.002243,0,255,255
151927.296875,817287.000000,0.002244,0,255,255
151927.625000,817286.937500,0.002245,0,255,255
151927.906250,817286.875000,0.002246,0,255,255
151928.125000,817286.687500,0.002247,0,255,255
151928.234375,817286.625000,0.002248,0,255,255
151928.359375,817286.562500,0.002249,0,255,255
151928.375000,817286.625000,0.002250,0,255,255
151928.437500,817286.562500,0.002251,0,255,255
151928.531250,817286.562500,0.002252,0,255,255
151928.531250,817286.562500,0.002253,0,255,255
151928.437500,817286.562500,0.002254,0,255,255
151928.375000,817286.562500,0.002255,0,255,255
151927.671875,817286.625000,0.002256,0,255,255
151927.593750,817286.625000,0.002257,0,255,255
151927.671875,817286.625000,0.002258,0,255,255
151927.812500,817286.562500,0.002259,0,255,255
151927.875000,817286.375000,0.002260,0,255,255
151928.000000,817286.375000,0.002261,0,255,255
151928.046875,817286.375000,0.002262,0,255,255
151928.109375,817286.375000,0.002263,0,255,255
151928.203125,817286.312500,0.002264,0,255,255
151928.421875,817286.312500,0.002265,0,255,255
151928.656250,817286.312500,0.002266,0,255,255
151928.828125,817286.312500,0.002267,0,255,255
151929.000000,817286.312500,0.002268,0,255,255
151929.203125,817286.312500,0.002269,0,255,255
151930.296875,817286.125000,0.002270,0,255,255
151930.359375,817286.125000,0.002271,0,255,255
151930.406250,817286.062500,0.002272,0,255,255
151930.453125,817286.062500,0.002273,0,255,255
151930.453125,817286.000000,0.002274,0,255,255
151930.531250,817286.000000,0.002275,0,255,255
151930.562500,817286.000000,0.002276,0,255,255
151930.562500,817286.000000,0.002277,0,255,255
151930.609375,817286.000000,0.002278,0,255,255
151930.593750,817285.937500,0.002279,0,255,255
151930.625000,817285.937500,0.002280,0,255,255
151930.671875,817285.937500,0.002281,0,255,255
151930.750000,817285.875000,0.002282,0,255,255
151930.890625,817285.750000,0.002283,0,255,255
151931.046875,817285.687500,0.002284,0,255,255
151931.187500,817285.625000,0.002285,0,255,255
151931.375000,817285.562500,0.002286,0,255,255
151931.562500,817285.562500,0.002287,0,255,255
151931.718750,817285.437500,0.002288,0,255,255
151931.890625,817285.375000,0.002289,0,255,255
151932.093750,817285.312500,0.002290,0,255,255
151932.437500,817285.312500,0.002291,0,255,255
151932.843750,817285.062500,0.002292,0,255,255
151932.921875,817285.062500,0.002293,0,255,255
151932.953125,817285.062500,0.002294,0,255,255
151933.000000,817285.062500,0.002295,0,255,255
151933.015625,817285.062500,0.002296,0,255,255
151933.078125,817285.062500,0.002297,0,255,255
151933.125000,817285.000000,0.002298,0,255,255
151933.171875,817285.000000,0.002299,0,255,255
151933.250000,817285.000000,0.002300,0,255,255
151933.406250,817284.937500,0.002301,0,255,255
151933.781250,817284.937500,0.002302,0,255,255
151933.890625,817284.937500,0.002303,0,255,255
151934.171875,817284.937500,0.002304,0,255,255
151934.218750,817284.812500,0.002305,0,255,255
151934.296875,817284.750000,0.002306,0,255,255
151934.359375,817284.750000,0.002307,0,255,255
151934.453125,817284.750000,0.002308,0,255,255
151934.562500,817284.750000,0.002309,0,255,255
151934.828125,817284.812500,0.002310,0,255,255
151935.359375,817284.687500,0.002311,0,255,255
151935.421875,817284.687500,0.002312,0,255,255
151935.500000,817284.687500,0.002313,0,255,255
151935.718750,817284.750000,0.002314,0,255,255
151935.718750,817284.750000,0.002315,0,255,255
151935.812500,817284.812500,0.002316,0,255,255
151935.953125,817284.937500,0.002317,0,255,255
151936.031250,817285.000000,0.002318,0,255,255
151936.109375,817285.125000,0.002319,0,255,255
151936.218750,817285.312500,0.002320,0,255,255
151936.218750,817285.500000,0.002321,0,255,255
151936.203125,817285.625000,0.002322,0,255,255
151936.250000,817285.687500,0.002323,0,255,255
151936.390625,817285.875000,0.002324,0,255,255
151936.531250,817285.937500,0.002325,0,255,255
151936.703125,817285.937500,0.002326,0,255,255
151936.734375,817285.937500,0.002327,0,255,255
151936.906250,817285.937500,0.002328,0,255,255
151937.093750,817285.875000,0.002329,0,255,255
151937.421875,817285.875000,0.002330,0,255,255
151937.750000,817285.875000,0.002331,0,255,255
151938.046875,817285.875000,0.002332,0,255,255
151938.312500,817285.750000,0.002333,0,255,255
151938.531250,817285.750000,0.002334,0,255,255
151938.687500,817285.750000,0.002335,0,255,255
151938.765625,817285.750000,0.002336,0,255,255
151938.781250,817285.687500,0.002337,0,255,255
151938.859375,817285.687500,0.002338,0,255,255
151938.921875,817285.687500,0.002339,0,255,255
151939.000000,817285.625000,0.002340,0,255,255
151939.078125,817285.625000,0.002341,0,255,255
151939.125000,817285.625000,0.002342,0,255,255
151939.234375,817285.625000,0.002343,0,255,255
151939.328125,817285.625000,0.002344,0,255,255
151939.437500,817285.625000,0.002345,0,255,255
151939.531250,817285.500000,0.002346,0,255,255
152329.843750,817205.500000,0.002347,0,255,255
152329.203125,817205.312500,0.002348,0,255,255
152328.546875,817205.125000,0.002349,0,255,255
152327.656250,817204.812500,0.002350,0,255,255
152326.859375,817204.437500,0.002351,0,255,255
152326.187500,817204.125000,0.002352,0,255,255
152326.078125,817204.062500,0.002353,0,255,255
152325.593750,817204.000000,0.002354,0,255,255
152324.453125,817203.812500,0.002355,0,255,255
152324.015625,817203.625000,0.002356,0,255,255
152323.375000,817203.125000,0.002357,0,255,255
152322.593750,817202.750000,0.002358,0,255,255
152322.218750,817202.437500,0.002359,0,255,255
152321.312500,817202.312500,0.002360,0,255,255
152319.359375,817201.875000,0.002361,0,255,255
152318.687500,817201.500000,0.002362,0,255,255
152317.312500,817201.187500,0.002363,0,255,255
152315.921875,817200.812500,0.002364,0,255,255
152315.515625,817200.937500,0.002365,0,255,255
152314.312500,817200.437500,0.002366,0,255,255
152313.359375,817200.187500,0.002367,0,255,255
152312.687500,817199.750000,0.002368,0,255,255
152311.453125,817199.312500,0.002369,0,255,255
152310.328125,817198.750000,0.002370,0,255,255
152309.843750,817198.500000,0.002371,0,255,255
152309.687500,817198.312500,0.002372,0,255,255
152309.406250,817198.187500,0.002373,0,255,255
152309.140625,817198.062500,0.002374,0,255,255
152309.000000,817197.937500,0.002375,0,255,255
152308.109375,817197.500000,0.002376,0,255,255
152307.640625,817197.187500,0.002377,0,255,255
152307.500000,817197.062500,0.002378,0,255,255
152307.125000,817197.062500,0.002379,0,255,255
152306.937500,817197.000000,0.002380,0,255,255
152306.171875,817196.812500,0.002381,0,255,255
152305.343750,817196.437500,0.002382,0,255,255
152305.109375,817196.312500,0.002383,0,255,255
152304.375000,817196.062500,0.002384,0,255,255
152304.046875,817195.875000,0.002385,0,255,255
152303.921875,817195.750000,0.002386,0,255,255
152303.468750,817195.562500,0.002387,0,255,255
152302.859375,817195.187500,0.002388,0,255,255
152302.171875,817194.750000,0.002389,0,255,255
152301.250000,817194.375000,0.002390,0,255,255
152300.421875,817193.937500,0.002391,0,255,255
152299.718750,817193.562500,0.002392,0,255,255
152299.218750,817193.250000,0.002393,0,255,255
152298.843750,817193.125000,0.002394,0,255,255
152298.343750,817192.812500,0.002395,0,255,255
152298.109375,817192.687500,0.002396,0,255,255
152297.359375,817192.000000,0.002397,0,255,255
152297.265625,817191.937500,0.002398,0,255,255
152296.656250,817191.375000,0.002399,0,255,255
152296.546875,817191.312500,0.002400,0,255,255
152296.406250,817191.125000,0.002401,0,255,255
152296.250000,817191.000000,0.002402,0,255,255
152295.890625,817190.750000,0.002403,0,255,255
152295.375000,817190.562500,0.002404,0,255,255
152295.140625,817190.500000,0.002405,0,255,255
152294.625000,817190.125000,0.002406,0,255,255
152294.531250,817189.937500,0.002407,0,255,255
152294.203125,817189.687500,0.002408,0,255,255
152293.640625,817189.125000,0.002409,0,255,255
152293.515625,817189.062500,0.002410,0,255,255
152293.343750,817188.875000,0.002411,0,255,255
152293.234375,817188.750000,0.002412,0,255,255
152293.031250,817188.250000,0.002413,0,255,255
152292.140625,817187.750000,0.002414,0,255,255
152291.703125,817187.375000,0.002415,0,255,255
152291.156250,817187.062500,0.002416,0,255,255
152290.921875,817186.937500,0.002417,0,255,255
152290.328125,817186.687500,0.002418,0,255,255
152289.968750,817186.437500,0.002419,0,255,255
152289.437500,817186.125000,0.002420,0,255,255
152289.015625,817185.750000,0.002421,0,255,255
152288.734375,817185.437500,0.002422,0,255,255
152288.453125,817185.250000,0.002423,0,255,255
152287.984375,817185.000000,0.002424,0,255,255
152287.625000,817184.812500,0.002425,0,255,255
152286.937500,817184.437500,0.002426,0,255,255
152286.656250,817184.250000,0.002427,0,255,255
152286.484375,817184.187500,0.002428,0,255,255
152286.281250,817184.000000,0.002429,0,255,255
152286.140625,817184.000000,0.002430,0,255,255
152285.921875,817183.687500,0.002431,0,255,255
152285.562500,817183.312500,0.002432,0,255,255
152285.046875,817183.000000,0.002433,0,255,255
152284.875000,817182.875000,0.002434,0,255,255
152284.250000,817182.437500,0.002435,0,255,255
152283.671875,817181.937500,0.002436,0,255,255
152283.515625,817181.937500,0.002437,0,255,255
152283.015625,817181.375000,0.002438,0,255,255
152282.406250,817181.000000,0.002439,0,255,255
152282.296875,817180.875000,0.002440,0,255,255
152282.187500,817180.812500,0.002441,0,255,255
152281.906250,817180.562500,0.002442,0,255,255
152281.812500,817180.500000,0.002443,0,255,255
152280.953125,817180.000000,0.002444,0,255,255
152280.390625,817179.875000,0.002445,0,255,255
152280.250000,817179.750000,0.002446,0,255,255
152280.062500,817179.625000,0.002447,0,255,255
152279.812500,817179.500000,0.002448,0,255,255
152279.703125,817179.312500,0.002449,0,255,255
152279.281250,817179.125000,0.002450,0,255,255
152279.171875,817178.937500,0.002451,0,255,255
152278.796875,817178.562500,0.002452,0,255,255
152278.609375,817178.437500,0.002453,0,255,255
152278.468750,817178.312500,0.002454,0,255,255
152278.234375,817178.125000,0.002455,0,255,255
152278.125000,817178.062500,0.002456,0,255,255
152277.937500,817177.750000,0.002457,0,255,255
152277.359375,817177.500000,0.002458,0,255,255
152277.062500,817177.250000,0.002459,0,255,255
152276.859375,817176.875000,0.002460,0,255,255
152276.781250,817176.812500,0.002461,0,255,255
152276.593750,817176.562500,0.002462,0,255,255
152276.265625,817176.250000,0.002463,0,255,255
152275.781250,817175.937500,0.002464,0,255,255
152275.500000,817175.812500,0.002465,0,255,255
152275.421875,817175.500000,0.002466,0,255,255
152275.390625,817175.500000,0.002467,0,255,255
152275.078125,817175.250000,0.002468,0,255,255
152274.703125,817174.875000,0.002469,0,255,255
152274.359375,817174.500000,0.002470,0,255,255
152274.250000,817174.375000,0.002471,0,255,255
152274.203125,817174.312500,0.002472,0,255,255
152274.125000,817174.062500,0.002473,0,255,255
152273.984375,817173.687500,0.002474,0,255,255
152273.890625,817173.312500,0.002475,0,255,255
152273.812500,817173.062500,0.002476,0,255,255
152273.718750,817172.687500,0.002477,0,255,255
152273.703125,817172.437500,0.002478,0,255,255
152273.640625,817172.125000,0.002479,0,255,255
152273.546875,817171.812500,0.002480,0,255,255
152273.515625,817171.562500,0.002481,0,255,255
152273.703125,817171.125000,0.002482,0,255,255
152273.890625,817170.937500,0.002483,0,255,255
152273.921875,817170.875000,0.002484,0,255,255
152273.890625,817170.437500,0.002485,0,255,255
152273.921875,817170.125000,0.002486,0,255,255
152273.968750,817169.750000,0.002487,0,255,255
152274.000000,817169.312500,0.002488,0,255,255
152274.093750,817168.812500,0.002489,0,255,255
152274.125000,817168.437500,0.002490,0,255,255
152274.046875,817168.062500,0.002491,0,255,255
152274.062500,817167.750000,0.002492,0,255,255
152273.984375,817167.500000,0.002493,0,255,255
152273.953125,817167.062500,0.002494,0,255,255
152273.906250,817166.875000,0.002495,0,255,255
152273.906250,817166.750000,0.002496,0,255,255
152274.109375,817166.437500,0.002497,0,255,255
152274.500000,817166.062500,0.002498,0,255,255
152274.562500,817165.750000,0.002499,0,255,255
152274.750000,817165.375000,0.002500,0,255,255
152274.906250,817165.000000,0.002501,0,255,255
152275.234375,817164.625000,0.002502,0,255,255
152275.203125,817164.312500,0.002503,0,255,255
152275.062500,817163.875000,0.002504,0,255,255
152275.343750,817163.437500,0.002505,0,255,255
152275.421875,817163.312500,0.002506,0,255,255
152275.437500,817163.125000,0.002507,0,255,255
152275.312500,817162.750000,0.002508,0,255,255
152275.421875,817162.562500,0.002509,0,255,255
152275.468750,817162.375000,0.002510,0,255,255
152275.468750,817162.312500,0.002511,0,255,255
152275.546875,817162.062500,0.002512,0,255,255
152275.437500,817162.062500,0.002513,0,255,255
152275.406250,817161.937500,0.002514,0,255,255
152275.453125,817161.750000,0.002515,0,255,255
152275.468750,817161.562500,0.002516,0,255,255
152275.421875,817161.437500,0.002517,0,255,255
152275.390625,817161.187500,0.002518,0,255,255
152275.468750,817161.062500,0.002519,0,255,255
152275.484375,817161.125000,0.002520,0,255,255
152275.500000,817161.187500,0.002521,0,255,255
152275.562500,817161.062500,0.002522,0,255,255
152275.546875,817160.937500,0.002523,0,255,255
152275.625000,817160.750000,0.002524,0,255,255
152275.703125,817160.375000,0.002525,0,255,255
152275.734375,817160.312500,0.002526,0,255,255
152544.343750,817136.187500,0.002527,0,255,255
152552.671875,817142.125000,0.002528,0,255,255
152564.421875,817149.437500,0.002529,0,255,255
152565.437500,817148.750000,0.002530,0,255,255
152564.984375,817148.875000,0.002531,0,255,255
152567.109375,817150.125000,0.002532,0,255,255
152568.453125,817149.062500,0.002533,0,255,255
152569.375000,817148.250000,0.002534,0,255,255
152569.750000,817147.500000,0.002535,0,255,255
152570.000000,817147.250000,0.002536,0,255,255
152570.015625,817146.375000,0.002537,0,255,255
152570.234375,817145.937500,0.002538,0,255,255
152570.406250,817145.062500,0.002539,0,255,255
152571.171875,817144.625000,0.002540,0,255,255
152571.343750,817143.500000,0.002541,0,255,255
152571.734375,817143.250000,0.002542,0,255,255
152572.218750,817142.750000,0.002543,0,255,255
152572.796875,817142.125000,0.002544,0,255,255
152573.125000,817141.312500,0.002545,0,255,255
152573.765625,817140.312500,0.002546,0,255,255
152573.796875,817139.687500,0.002547,0,255,255
152573.968750,817139.187500,0.002548,0,255,255
152573.718750,817138.625000,0.002549,0,255,255
152573.828125,817137.875000,0.002550,0,255,255
152573.812500,817137.250000,0.002551,0,255,255
152574.062500,817136.625000,0.002552,0,255,255
152574.000000,817135.875000,0.002553,0,255,255
152574.609375,817135.062500,0.002554,0,255,255
152575.671875,817134.312500,0.002555,0,255,255
152576.312500,817133.187500,0.002556,0,255,255
152576.984375,817132.500000,0.002557,0,255,255
152576.859375,817131.250000,0.002558,0,255,255
152576.515625,817130.937500,0.002559,0,255,255
152576.125000,817130.000000,0.002560,0,255,255
152575.687500,817129.250000,0.002561,0,255,255
152575.296875,817128.875000,0.002562,0,255,255
152574.718750,817128.125000,0.002563,0,255,255
152573.968750,817127.312500,0.002564,0,255,255
152572.578125,817126.875000,0.002565,0,255,255
152571.359375,817126.750000,0.002566,0,255,255
152570.578125,817125.937500,0.002567,0,255,255
152570.375000,817125.312500,0.002568,0,255,255
152570.125000,817125.125000,0.002569,0,255,255
152569.703125,817124.875000,0.002570,0,255,255
152569.000000,817124.500000,0.002571,0,255,255
152565.593750,817122.187500,0.002572,0,255,255
152565.000000,817121.500000,0.002573,0,255,255
152564.609375,817120.875000,0.002574,0,255,255
152563.812500,817120.312500,0.002575,0,255,255
152563.546875,817119.562500,0.002576,0,255,255
152563.296875,817118.625000,0.002577,0,255,255
152562.765625,817117.875000,0.002578,0,255,255
152562.406250,817117.312500,0.002579,0,255,255
152562.234375,817116.750000,0.002580,0,255,255
152562.281250,817115.750000,0.002581,0,255,255
152562.468750,817115.500000,0.002582,0,255,255
152563.078125,817114.750000,0.002583,0,255,255
152562.953125,817114.187500,0.002584,0,255,255
152562.546875,817113.062500,0.002585,0,255,255
152562.218750,817112.937500,0.002586,0,255,255
152561.968750,817112.500000,0.002587,0,255,255
152561.531250,817111.812500,0.002588,0,255,255
152561.640625,817111.062500,0.002589,0,255,255
152561.750000,817110.875000,0.002590,0,255,255
152561.343750,817110.062500,0.002591,0,255,255
152560.453125,817109.312500,0.002592,0,255,255
152559.968750,817108.750000,0.002593,0,255,255
152559.406250,817107.937500,0.002594,0,255,255
152559.046875,817106.937500,0.002595,0,255,255
152559.703125,817106.187500,0.002596,0,255,255
152559.421875,817105.687500,0.002597,0,255,255
152559.562500,817105.187500,0.002598,0,255,255
152559.328125,817104.312500,0.002599,0,255,255
152559.203125,817103.812500,0.002600,0,255,255
152558.906250,817102.750000,0.002601,0,255,255
152559.203125,817102.125000,0.002602,0,255,255
152558.921875,817101.375000,0.002603,0,255,255
152558.390625,817100.812500,0.002604,0,255,255
152558.281250,817100.375000,0.002605,0,255,255
152557.578125,817099.812500,0.002606,0,255,255
152557.546875,817099.312500,0.002607,0,255,255
152557.625000,817098.687500,0.002608,0,255,255
152557.406250,817097.750000,0.002609,0,255,255
152557.015625,817096.937500,0.002610,0,255,255
152556.546875,817096.187500,0.002611,0,255,255
152556.593750,817095.250000,0.002612,0,255,255
152556.625000,817094.437500,0.002613,0,255,255
152556.859375,817093.687500,0.002614,0,255,255
152557.000000,817093.125000,0.002615,0,255,255
152557.078125,817092.375000,0.002616,0,255,255
152557.125000,817092.062500,0.002617,0,255,255
152557.078125,817091.875000,0.002618,0,255,255
152557.046875,817091.187500,0.002619,0,255,255
152557.312500,817090.187500,0.002620,0,255,255
152556.500000,817089.750000,0.002621,0,255,255
152556.125000,817089.312500,0.002622,0,255,255
152555.953125,817088.437500,0.002623,0,255,255
152556.031250,817087.750000,0.002624,0,255,255
152555.953125,817087.125000,0.002625,0,255,255
152556.250000,817086.500000,0.002626,0,255,255
152556.281250,817086.125000,0.002627,0,255,255
152556.265625,817085.375000,0.002628,0,255,255
152555.953125,817084.750000,0.002629,0,255,255
152555.015625,817084.187500,0.002630,0,255,255
152554.703125,817083.750000,0.002631,0,255,255
152554.390625,817083.125000,0.002632,0,255,255
152554.109375,817082.375000,0.002633,0,255,255
152554.031250,817081.875000,0.002634,0,255,255
152553.421875,817081.062500,0.002635,0,255,255
152553.281250,817080.375000,0.002636,0,255,255
152553.171875,817079.875000,0.002637,0,255,255
152552.656250,817079.312500,0.002638,0,255,255
152551.250000,817077.125000,0.002639,0,255,255
152550.968750,817076.750000,0.002640,0,255,255
152550.843750,817075.750000,0.002641,0,255,255
152550.562500,817075.250000,0.002642,0,255,255
152549.968750,817074.500000,0.002643,0,255,255
152549.734375,817073.875000,0.002644,0,255,255
152549.796875,817073.000000,0.002645,0,255,255
152549.765625,817072.562500,0.002646,0,255,255
152549.750000,817071.812500,0.002647,0,255,255
152549.000000,817071.125000,0.002648,0,255,255
152548.937500,817070.937500,0.002649,0,255,255
152549.343750,817070.250000,0.002650,0,255,255
152549.000000,817069.750000,0.002651,0,255,255
152548.796875,817069.312500,0.002652,0,255,255
152548.703125,817069.062500,0.002653,0,255,255
152548.812500,817068.625000,0.002654,0,255,255
152549.046875,817067.875000,0.002655,0,255,255
152549.046875,817067.312500,0.002656,0,255,255
152548.937500,817066.437500,0.002657,0,255,255
152548.500000,817065.812500,0.002658,0,255,255
152548.296875,817065.250000,0.002659,0,255,255
152547.921875,817064.750000,0.002660,0,255,255
152547.781250,817064.562500,0.002661,0,255,255
152547.546875,817064.062500,0.002662,0,255,255
152547.890625,817063.500000,0.002663,0,255,255
152547.859375,817063.187500,0.002664,0,255,255
152547.906250,817062.937500,0.002665,0,255,255
152548.156250,817062.625000,0.002666,0,255,255
152548.234375,817062.062500,0.002667,0,255,255
152548.468750,817061.625000,0.002668,0,255,255
152548.625000,817061.312500,0.002669,0,255,255
152548.656250,817060.750000,0.002670,0,255,255
152548.703125,817060.687500,0.002671,0,255,255
152548.625000,817060.187500,0.002672,0,255,255
152548.437500,817060.062500,0.002673,0,255,255
152548.328125,817059.750000,0.002674,0,255,255
152548.500000,817059.562500,0.002675,0,255,255
152548.562500,817059.375000,0.002676,0,255,255
152548.687500,817059.187500,0.002677,0,255,255
152548.906250,817058.875000,0.002678,0,255,255
152549.140625,817058.687500,0.002679,0,255,255
152549.203125,817058.312500,0.002680,0,255,255
152549.453125,817057.875000,0.002681,0,255,255
152549.375000,817057.750000,0.002682,0,255,255
152549.328125,817057.500000,0.002683,0,255,255
152549.281250,817057.375000,0.002684,0,255,255
152549.000000,817057.375000,0.002685,0,255,255
152548.937500,817056.687500,0.002686,0,255,255
152548.828125,817056.312500,0.002687,0,255,255
152548.906250,817055.875000,0.002688,0,255,255
152548.609375,817055.000000,0.002689,0,255,255
152548.531250,817054.625000,0.002690,0,255,255
152548.531250,817054.375000,0.002691,0,255,255
152548.593750,817054.000000,0.002692,0,255,255
152548.500000,817053.875000,0.002693,0,255,255
152548.406250,817053.500000,0.002694,0,255,255
152548.281250,817053.187500,0.002695,0,255,255
152547.953125,817052.937500,0.002696,0,255,255
152547.312500,817053.062500,0.002697,0,255,255
152547.031250,817053.062500,0.002698,0,255,255
152546.750000,817053.000000,0.002699,0,255,255
152546.531250,817052.750000,0.002700,0,255,255
152546.500000,817052.687500,0.002701,0,255,255
152545.171875,817050.812500,0.002702,0,255,255
152545.187500,817050.000000,0.002703,0,255,255
152544.843750,817049.750000,0.002704,0,255,255
152544.671875,817049.625000,0.002705,0,255,255
152544.687500,817049.500000,0.002706,0,255,255
152544.546875,817049.312500,0.002707,0,255,255
152543.828125,817049.187500,0.002708,0,255,255
152543.453125,817049.187500,0.002709,0,255,255
152543.078125,817049.187500,0.002710,0,255,255
152542.781250,817049.375000,0.002711,0,255,255
152542.703125,817049.562500,0.002712,0,255,255
152542.687500,817049.750000,0.002713,0,255,255
152542.625000,817049.812500,0.002714,0,255,255
152542.625000,817049.812500,0.002715,0,255,255
152542.812500,817049.562500,0.002716,0,255,255
152542.921875,817049.500000,0.002717,0,255,255
152542.984375,817049.375000,0.002718,0,255,255
152543.140625,817049.187500,0.002719,0,255,255
152543.281250,817049.187500,0.002720,0,255,255
152543.437500,817049.062500,0.002721,0,255,255
152543.515625,817048.687500,0.002722,0,255,255
152543.156250,817048.500000,0.002723,0,255,255
152542.843750,817048.375000,0.002724,0,255,255
152542.406250,817048.125000,0.002725,0,255,255
152542.203125,817048.062500,0.002726,0,255,255
152542.000000,817048.062500,0.002727,0,255,255
152541.984375,817048.000000,0.002728,0,255,255
152542.031250,817048.000000,0.002729,0,255,255
152542.078125,817048.000000,0.002730,0,255,255
152542.078125,817048.000000,0.002731,0,255,255
152542.062500,817047.937500,0.002732,0,255,255
152542.078125,817048.000000,0.002733,0,255,255
152542.015625,817047.875000,0.002734,0,255,255
152857.984375,817004.812500,0.002735,0,255,255
152858.109375,817003.750000,0.002736,0,255,255
152857.953125,817003.625000,0.002737,0,255,255
152858.281250,817003.625000,0.002738,0,255,255
152857.125000,817002.250000,0.002739,0,255,255
152857.890625,817001.625000,0.002740,0,255,255
152858.656250,817001.625000,0.002741,0,255,255
152857.765625,817000.000000,0.002742,0,255,255
152857.718750,816999.250000,0.002743,0,255,255
152857.609375,816999.125000,0.002744,0,255,255
152857.734375,816999.000000,0.002745,0,255,255
152859.453125,816998.437500,0.002746,0,255,255
152859.031250,816998.062500,0.002747,0,255,255
152859.000000,816997.937500,0.002748,0,255,255
152859.656250,816998.437500,0.002749,0,255,255
152860.234375,816998.312500,0.002750,0,255,255
152860.500000,816998.062500,0.002751,0,255,255
152860.187500,816998.125000,0.002752,0,255,255
152860.359375,816997.125000,0.002753,0,255,255
152860.875000,816996.250000,0.002754,0,255,255
152862.781250,816995.875000,0.002755,0,255,255
152865.250000,816995.625000,0.002756,0,255,255
152865.843750,816995.187500,0.002757,0,255,255
152868.359375,816992.062500,0.002758,0,255,255
152868.296875,816991.187500,0.002759,0,255,255
152867.437500,816989.375000,0.002760,0,255,255
152865.250000,816987.000000,0.002761,0,255,255
152863.468750,816983.937500,0.002762,0,255,255
152862.625000,816983.812500,0.002763,0,255,255
152862.890625,816983.375000,0.002764,0,255,255
152862.406250,816982.750000,0.002765,0,255,255
152861.343750,816981.437500,0.002766,0,255,255
152860.343750,816979.875000,0.002767,0,255,255
152858.875000,816978.062500,0.002768,0,255,255
152859.046875,816978.000000,0.002769,0,255,255
152858.500000,816978.062500,0.002770,0,255,255
152855.578125,816975.312500,0.002771,0,255,255
152854.703125,816975.312500,0.002772,0,255,255
152854.484375,816974.812500,0.002773,0,255,255
152854.125000,816974.062500,0.002774,0,255,255
152853.375000,816973.375000,0.002775,0,255,255
152851.968750,816972.250000,0.002776,0,255,255
152852.296875,816971.875000,0.002777,0,255,255
152851.031250,816973.187500,0.002778,0,255,255
152850.203125,816974.000000,0.002779,0,255,255
152849.140625,816974.062500,0.002780,0,255,255
152846.078125,816971.187500,0.002781,0,255,255
152848.640625,816966.250000,0.002782,0,255,255
152847.796875,816965.875000,0.002783,0,255,255
152846.312500,816965.937500,0.002784,0,255,255
152847.625000,816965.375000,0.002785,0,255,255
152841.421875,816956.812500,0.002786,0,255,255
152836.781250,816952.062500,0.002787,0,255,255
152836.109375,816947.000000,0.002788,0,255,255
152835.296875,816944.687500,0.002789,0,255,255
152835.187500,816942.187500,0.002790,0,255,255
152835.234375,816940.687500,0.002791,0,255,255
152835.500000,816940.125000,0.002792,0,255,255
152835.859375,816939.437500,0.002793,0,255,255
152836.500000,816937.937500,0.002794,0,255,255
152837.312500,816936.187500,0.002795,0,255,255
152837.640625,816934.687500,0.002796,0,255,255
152838.328125,816932.750000,0.002797,0,255,255
152838.468750,816932.312500,0.002798,0,255,255
152838.953125,816930.500000,0.002799,0,255,255
152839.078125,816930.000000,0.002800,0,255,255
152839.562500,816928.625000,0.002801,0,255,255
152840.140625,816927.187500,0.002802,0,255,255
152841.125000,816925.187500,0.002803,0,255,255
152841.812500,816923.437500,0.002804,0,255,255
152842.437500,816921.812500,0.002805,0,255,255
152842.421875,816921.437500,0.002806,0,255,255
152843.578125,816919.812500,0.002807,0,255,255
152844.015625,816919.000000,0.002808,0,255,255
152844.546875,816917.687500,0.002809,0,255,255
152844.593750,816917.062500,0.002810,0,255,255
152845.015625,816916.125000,0.002811,0,255,255
152845.078125,816915.437500,0.002812,0,255,255
152844.875000,816914.500000,0.002813,0,255,255
152844.937500,816914.187500,0.002814,0,255,255
152845.359375,816913.062500,0.002815,0,255,255
152845.156250,816911.375000,0.002816,0,255,255
152844.531250,816910.187500,0.002817,0,255,255
152844.437500,816908.625000,0.002818,0,255,255
152844.531250,816907.875000,0.002819,0,255,255
152845.125000,816906.312500,0.002820,0,255,255
152845.500000,816904.187500,0.002821,0,255,255
152845.718750,816903.312500,0.002822,0,255,255
152845.703125,816902.062500,0.002823,0,255,255
152845.500000,816901.500000,0.002824,0,255,255
152845.546875,816900.812500,0.002825,0,255,255
152846.109375,816899.625000,0.002826,0,255,255
152845.281250,816898.125000,0.002827,0,255,255
152845.265625,816896.187500,0.002828,0,255,255
152844.531250,816895.625000,0.002829,0,255,255
152844.921875,816894.000000,0.002830,0,255,255
152845.015625,816893.062500,0.002831,0,255,255
152844.984375,816892.562500,0.002832,0,255,255
152844.812500,816891.125000,0.002833,0,255,255
152844.953125,816890.250000,0.002834,0,255,255
152844.718750,816889.125000,0.002835,0,255,255
152844.968750,816888.687500,0.002836,0,255,255
152845.078125,816888.125000,0.002837,0,255,255
152845.281250,816886.000000,0.002838,0,255,255
152845.250000,816885.625000,0.002839,0,255,255
152845.500000,816884.500000,0.002840,0,255,255
152845.734375,816883.625000,0.002841,0,255,255
152845.875000,816882.375000,0.002842,0,255,255
152845.906250,816882.000000,0.002843,0,255,255
152845.953125,816880.687500,0.002844,0,255,255
152846.218750,816879.875000,0.002845,0,255,255
152846.609375,816879.125000,0.002846,0,255,255
152846.640625,816878.250000,0.002847,0,255,255
152846.640625,816877.312500,0.002848,0,255,255
152846.781250,816876.625000,0.002849,0,255,255
152846.875000,816876.125000,0.002850,0,255,255
152847.171875,816875.437500,0.002851,0,255,255
152847.218750,816873.937500,0.002852,0,255,255
152847.218750,816873.062500,0.002853,0,255,255
152847.218750,816872.500000,0.002854,0,255,255
152847.296875,816871.687500,0.002855,0,255,255
152847.296875,816870.750000,0.002856,0,255,255
152847.171875,816870.187500,0.002857,0,255,255
152847.156250,816869.812500,0.002858,0,255,255
152847.125000,816869.062500,0.002859,0,255,255
152847.125000,816868.562500,0.002860,0,255,255
152847.125000,816868.187500,0.002861,0,255,255
152847.125000,816868.187500,0.002862,0,255,255
152847.187500,816867.562500,0.002863,0,255,255
152847.390625,816867.000000,0.002864,0,255,255
152847.750000,816866.125000,0.002865,0,255,255
152848.953125,816866.437500,0.002866,0,255,255
152849.031250,816865.875000,0.002867,0,255,255
152849.734375,816865.812500,0.002868,0,255,255
152849.781250,816865.562500,0.002869,0,255,255
152849.796875,816865.437500,0.002870,0,255,255
152849.593750,816864.500000,0.002871,0,255,255
152849.828125,816864.187500,0.002872,0,255,255
152849.765625,816863.750000,0.002873,0,255,255
152849.937500,816863.125000,0.002874,0,255,255
152850.281250,816862.750000,0.002875,0,255,255
152850.343750,816862.437500,0.002876,0,255,255
152850.515625,816862.250000,0.002877,0,255,255
152850.437500,816862.125000,0.002878,0,255,255
152850.531250,816862.062500,0.002879,0,255,255
152850.906250,816862.250000,0.002880,0,255,255
152851.015625,816862.250000,0.002881,0,255,255
152851.265625,816862.312500,0.002882,0,255,255
152851.421875,816862.125000,0.002883,0,255,255
152851.359375,816862.000000,0.002884,0,255,255
152851.375000,816861.875000,0.002885,0,255,255
152851.500000,816861.687500,0.002886,0,255,255
152851.812500,816861.687500,0.002887,0,255,255
152851.796875,816861.687500,0.002888,0,255,255
152851.875000,816861.625000,0.002889,0,255,255
152852.328125,816860.875000,0.002890,0,255,255
150461.593750,818278.625000,0.002891,0,255,255
150459.984375,818278.187500,0.002892,0,255,255
150458.828125,818278.000000,0.002893,0,255,255
150458.843750,818278.000000,0.002894,0,255,255
150458.968750,818278.000000,0.002895,0,255,255
150459.546875,818278.062500,0.002896,0,255,255
150459.750000,818278.125000,0.002897,0,255,255
150459.875000,818278.375000,0.002898,0,255,255
150459.812500,818278.500000,0.002899,0,255,255
150459.562500,818278.500000,0.002900,0,255,255
150459.343750,818278.562500,0.002901,0,255,255
150459.375000,818278.562500,0.002902,0,255,255
150459.781250,818278.437500,0.002903,0,255,255
150459.937500,818278.187500,0.002904,0,255,255
150457.453125,818278.750000,0.002905,0,255,255
150457.265625,818278.812500,0.002906,0,255,255
150456.406250,818279.187500,0.002907,0,255,255
150456.125000,818279.312500,0.002908,0,255,255
150455.765625,818279.187500,0.002909,0,255,255
150455.687500,818279.062500,0.002910,0,255,255
150455.281250,818278.875000,0.002911,0,255,255
150454.546875,818278.625000,0.002912,0,255,255
150454.250000,818278.625000,0.002913,0,255,255
150454.093750,818278.625000,0.002914,0,255,255
150453.890625,818278.687500,0.002915,0,255,255
150453.468750,818278.750000,0.002916,0,255,255
150453.312500,818278.812500,0.002917,0,255,255
150453.218750,818278.875000,0.002918,0,255,255
150452.843750,818278.875000,0.002919,0,255,255
150452.765625,818279.000000,0.002920,0,255,255
150451.406250,818279.125000,0.002921,0,255,255
150451.265625,818279.062500,0.002922,0,255,255
150450.593750,818279.500000,0.002923,0,255,255
150450.109375,818279.750000,0.002924,0,255,255
150449.359375,818279.812500,0.002925,0,255,255
150449.156250,818279.875000,0.002926,0,255,255
150448.937500,818279.812500,0.002927,0,255,255
150448.625000,818279.812500,0.002928,0,255,255
150447.750000,818279.937500,0.002929,0,255,255
150447.468750,818279.875000,0.002930,0,255,255
150447.031250,818280.187500,0.002931,0,255,255
150445.546875,818280.312500,0.002932,0,255,255
150444.265625,818280.375000,0.002933,0,255,255
150443.406250,818280.625000,0.002934,0,255,255
150443.140625,818280.687500,0.002935,0,255,255
150443.203125,818280.625000,0.002936,0,255,255
150443.093750,818280.562500,0.002937,0,255,255
150442.531250,818279.375000,0.002938,0,255,255
150441.468750,818279.125000,0.002939,0,255,255
150439.921875,818279.125000,0.002940,0,255,255
150438.234375,818279.000000,0.002941,0,255,255
150436.765625,818278.812500,0.002942,0,255,255
150434.734375,818278.625000,0.002943,0,255,255
150433.468750,818278.750000,0.002944,0,255,255
150432.375000,818278.937500,0.002945,0,255,255
150431.484375,818279.625000,0.002946,0,255,255
150431.078125,818279.687500,0.002947,0,255,255
150428.875000,818281.312500,0.002948,0,255,255
150427.734375,818281.625000,0.002949,0,255,255
150426.921875,818282.062500,0.002950,0,255,255
150425.968750,818282.562500,0.002951,0,255,255
150424.578125,818282.750000,0.002952,0,255,255
150424.156250,818282.812500,0.002953,0,255,255
150422.171875,818282.500000,0.002954,0,255,255
150421.921875,818282.687500,0.002955,0,255,255
150421.640625,818282.937500,0.002956,0,255,255
150421.421875,818283.000000,0.002957,0,255,255
150420.515625,818283.187500,0.002958,0,255,255
150420.156250,818283.312500,0.002959,0,255,255
150419.562500,818283.375000,0.002960,0,255,255
150418.734375,818283.375000,0.002961,0,255,255
150418.296875,818283.437500,0.002962,0,255,255
150418.203125,818283.562500,0.002963,0,255,255
150418.140625,818283.625000,0.002964,0,255,255
150417.875000,818283.625000,0.002965,0,255,255
150417.656250,818283.687500,0.002966,0,255,255
150417.515625,818283.687500,0.002967,0,255,255
150417.281250,818284.000000,0.002968,0,255,255
150416.875000,818284.062500,0.002969,0,255,255
150415.968750,818284.375000,0.002970,0,255,255
150415.828125,818284.312500,0.002971,0,255,255
150415.421875,818284.562500,0.002972,0,255,255
150415.140625,818284.687500,0.002973,0,255,255
150414.578125,818284.937500,0.002974,0,255,255
150414.187500,818285.312500,0.002975,0,255,255
150413.734375,818285.437500,0.002976,0,255,255
150413.140625,818285.250000,0.002977,0,255,255
150412.843750,818285.062500,0.002978,0,255,255
150412.187500,818284.937500,0.002979,0,255,255
150411.875000,818285.000000,0.002980,0,255,255
150411.562500,818285.000000,0.002981,0,255,255
150411.234375,818285.125000,0.002982,0,255,255
150410.812500,818285.187500,0.002983,0,255,255
150410.515625,818285.375000,0.002984,0,255,255
150410.312500,818285.625000,0.002985,0,255,255
150409.921875,818285.687500,0.002986,0,255,255
150409.750000,818285.625000,0.002987,0,255,255
150409.562500,818285.562500,0.002988,0,255,255
150409.468750,818285.562500,0.002989,0,255,255
150409.437500,818285.562500,0.002990,0,255,255
150409.437500,818285.562500,0.002991,0,255,255
150409.453125,818285.562500,0.002992,0,255,255
150409.484375,818285.500000,0.002993,0,255,255
150409.484375,818285.500000,0.002994,0,255,255
150409.484375,818285.500000,0.002995,0,255,255
150409.484375,818285.500000,0.002996,0,255,255
150409.468750,818285.500000,0.002997,0,255,255
150409.468750,818285.500000,0.002998,0,255,255
150423.906250,818306.250000,0.002999,0,255,255
150423.984375,818305.875000,0.003000,0,255,255
150424.093750,818305.625000,0.003001,0,255,255
150424.578125,818303.687500,0.003002,0,255,255
150424.734375,818303.687500,0.003003,0,255,255
150427.046875,818307.250000,0.003004,0,255,255
150427.093750,818307.250000,0.003005,0,255,255
150428.031250,818306.812500,0.003006,0,255,255
150428.031250,818306.750000,0.003007,0,255,255
150428.046875,818306.562500,0.003008,0,255,255
150428.984375,818306.687500,0.003009,0,255,255
150429.031250,818306.625000,0.003010,0,255,255
150429.078125,818306.625000,0.003011,0,255,255
150429.578125,818306.562500,0.003012,0,255,255
150429.625000,818306.437500,0.003013,0,255,255
150428.703125,818306.812500,0.003014,0,255,255
150428.734375,818306.812500,0.003015,0,255,255
150428.734375,818306.875000,0.003016,0,255,255
150428.062500,818306.437500,0.003017,0,255,255
150428.015625,818306.437500,0.003018,0,255,255
150427.625000,818305.750000,0.003019,0,255,255
150427.640625,818305.750000,0.003020,0,255,255
150427.734375,818305.000000,0.003021,0,255,255
150427.718750,818304.875000,0.003022,0,255,255
150427.343750,818304.625000,0.003023,0,255,255
150427.359375,818304.625000,0.003024,0,255,255
150427.390625,818304.562500,0.003025,0,255,255
150426.484375,818304.875000,0.003026,0,255,255
150426.421875,818304.875000,0.003027,0,255,255
150426.406250,818304.875000,0.003028,0,255,255
150426.078125,818304.125000,0.003029,0,255,255
150426.062500,818304.062500,0.003030,0,255,255
150426.015625,818303.875000,0.003031,0,255,255
150425.890625,818303.312500,0.003032,0,255,255
150425.921875,818303.312500,0.003033,0,255,255
150425.984375,818303.375000,0.003034,0,255,255
150426.140625,818303.375000,0.003035,0,255,255
150426.984375,818302.500000,0.003036,0,255,255
150426.828125,818302.562500,0.003037,0,255,255
150426.875000,818302.562500,0.003038,0,255,255
150426.921875,818302.375000,0.003039,0,255,255
150427.546875,818303.500000,0.003040,0,255,255
150426.812500,818301.562500,0.003041,0,255,255
150426.734375,818301.187500,0.003042,0,255,255
150426.656250,818301.062500,0.003043,0,255,255
150426.062500,818300.562500,0.003044,0,255,255
150424.750000,818300.625000,0.003045,0,255,255
150424.390625,818300.375000,0.003046,0,255,255
150426.078125,818298.937500,0.003047,0,255,255
150426.125000,818298.875000,0.003048,0,255,255
150424.515625,818300.125000,0.003049,0,255,255
150424.515625,818299.812500,0.003050,0,255,255
150424.296875,818299.000000,0.003051,0,255,255
150424.218750,818298.062500,0.003052,0,255,255
150424.203125,818297.937500,0.003053,0,255,255
150424.203125,818297.812500,0.003054,0,255,255
150424.187500,818297.625000,0.003055,0,255,255
150424.187500,818297.625000,0.003056,0,255,255
150424.218750,818297.250000,0.003057,0,255,255
150424.828125,818294.687500,0.003058,0,255,255
150424.812500,818294.500000,0.003059,0,255,255
150424.765625,818294.250000,0.003060,0,255,255
150424.828125,818294.000000,0.003061,0,255,255
150424.812500,818293.875000,0.003062,0,255,255
150424.750000,818293.750000,0.003063,0,255,255
150424.703125,818293.562500,0.003064,0,255,255
150424.281250,818292.000000,0.003065,0,255,255
150424.218750,818291.937500,0.003066,0,255,255
150424.265625,818291.875000,0.003067,0,255,255
150424.265625,818291.750000,0.003068,0,255,255
150424.140625,818291.750000,0.003069,0,255,255
150423.984375,818291.625000,0.003070,0,255,255
150423.921875,818291.625000,0.003071,0,255,255
150423.875000,818291.625000,0.003072,0,255,255
150422.937500,818291.062500,0.003073,0,255,255
150422.859375,818291.062500,0.003074,0,255,255
150422.687500,818291.000000,0.003075,0,255,255
150422.765625,818290.937500,0.003076,0,255,255
150422.656250,818290.812500,0.003077,0,255,255
150422.765625,818290.625000,0.003078,0,255,255
150424.140625,818288.750000,0.003079,0,255,255
150424.125000,818288.625000,0.003080,0,255,255
150424.359375,818288.250000,0.003081,0,255,255
150424.421875,818288.125000,0.003082,0,255,255
150424.578125,818287.875000,0.003083,0,255,255
150424.812500,818287.687500,0.003084,0,255,255
150424.718750,818287.625000,0.003085,0,255,255
150424.734375,818287.437500,0.003086,0,255,255
150424.031250,818288.125000,0.003087,0,255,255
150423.984375,818287.750000,0.003088,0,255,255
150424.156250,818287.250000,0.003089,0,255,255
150424.468750,818286.937500,0.003090,0,255,255
150424.593750,818286.500000,0.003091,0,255,255
150424.859375,818286.000000,0.003092,0,255,255
150424.875000,818285.625000,0.003093,0,255,255
150424.687500,818285.500000,0.003094,0,255,255
150424.593750,818282.062500,0.003095,0,255,255
150424.625000,818281.875000,0.003096,0,255,255
150424.562500,818281.687500,0.003097,0,255,255
150424.734375,818281.375000,0.003098,0,255,255
150424.859375,818281.062500,0.003099,0,255,255
150424.937500,818280.937500,0.003100,0,255,255
150424.921875,818280.812500,0.003101,0,255,255
150425.015625,818280.687500,0.003102,0,255,255
150425.031250,818280.625000,0.003103,0,255,255
150425.406250,818278.375000,0.003104,0,255,255
150425.421875,818278.250000,0.003105,0,255,255
150425.328125,818278.187500,0.003106,0,255,255
150425.093750,818278.062500,0.003107,0,255,255
150424.906250,818278.000000,0.003108,0,255,255
150424.640625,818278.000000,0.003109,0,255,255
150424.500000,818277.937500,0.003110,0,255,255
150424.390625,818277.875000,0.003111,0,255,255
150424.328125,818277.875000,0.003112,0,255,255
150424.265625,818275.500000,0.003113,0,255,255
150424.265625,818275.562500,0.003114,0,255,255
150424.203125,818275.625000,0.003115,0,255,255
150424.156250,818275.687500,0.003116,0,255,255
150423.953125,818275.687500,0.003117,0,255,255
150423.859375,818275.687500,0.003118,0,255,255
150423.609375,818275.562500,0.003119,0,255,255
150422.921875,818273.937500,0.003120,0,255,255
150423.031250,818273.937500,0.003121,0,255,255
150423.000000,818274.000000,0.003122,0,255,255
150422.890625,818274.062500,0.003123,0,255,255
150422.750000,818274.062500,0.003124,0,255,255
150422.656250,818274.062500,0.003125,0,255,255
150422.609375,818273.937500,0.003126,0,255,255
150422.546875,818273.937500,0.003127,0,255,255
150422.515625,818273.687500,0.003128,0,255,255
150422.593750,818273.250000,0.003129,0,255,255
150422.500000,818270.750000,0.003130,0,255,255
150422.468750,818270.562500,0.003131,0,255,255
150422.437500,818270.375000,0.003132,0,255,255
150422.390625,818270.250000,0.003133,0,255,255
150422.343750,818270.187500,0.003134,0,255,255
150422.250000,818270.187500,0.003135,0,255,255
150422.156250,818270.125000,0.003136,0,255,255
150422.312500,818268.125000,0.003137,0,255,255
150422.593750,818267.937500,0.003138,0,255,255
150422.578125,818267.750000,0.003139,0,255,255
150422.500000,818267.625000,0.003140,0,255,255
150422.265625,818267.625000,0.003141,0,255,255
150422.062500,818267.625000,0.003142,0,255,255
150421.921875,818267.687500,0.003143,0,255,255
