X,Y,Z,R,G,B
148559.921875,816793.750000,0.018439,255,0,0
148559.640625,816793.750000,0.018440,255,0,0
148559.640625,816793.750000,0.018441,255,0,0
148559.375000,816793.687500,0.018442,255,0,0
148559.375000,816793.687500,0.018443,255,0,0
148558.703125,816793.500000,0.018444,255,0,0
148558.703125,816793.500000,0.018445,255,0,0
148558.437500,816793.500000,0.018446,255,0,0
148558.171875,816793.312500,0.018447,255,0,0
148558.171875,816793.312500,0.018448,255,0,0
148558.171875,816793.312500,0.018449,255,0,0
148557.750000,816793.125000,0.018450,255,0,0
148557.500000,816793.125000,0.018451,255,0,0
148557.234375,816792.937500,0.018452,255,0,0
148557.234375,816792.937500,0.018453,255,0,0
148557.234375,816792.937500,0.018454,255,0,0
148556.671875,816792.750000,0.018455,255,0,0
148556.562500,816792.625000,0.018456,255,0,0
148556.562500,816792.625000,0.018457,255,0,0
148556.265625,816792.500000,0.018458,255,0,0
148555.875000,816792.250000,0.018459,255,0,0
148555.593750,816792.062500,0.018460,255,0,0
148555.593750,816792.062500,0.018461,255,0,0
148555.328125,816791.875000,0.018462,255,0,0
148555.328125,816791.875000,0.018463,255,0,0
148554.921875,816791.687500,0.018464,255,0,0
148554.656250,816791.625000,0.018465,255,0,0
148554.656250,816791.625000,0.018466,255,0,0
148554.390625,816791.437500,0.018467,255,0,0
148554.390625,816791.437500,0.018468,255,0,0
148554.390625,816791.437500,0.018469,255,0,0
148553.859375,816791.187500,0.018470,255,0,0
148553.859375,816791.187500,0.018471,255,0,0
148553.578125,816791.062500,0.018472,255,0,0
148553.578125,816791.062500,0.018473,255,0,0
148553.453125,816791.000000,0.018474,255,0,0
148553.453125,816791.000000,0.018475,255,0,0
148553.453125,816791.000000,0.018476,255,0,0
148552.890625,816790.687500,0.018477,255,0,0
148552.656250,816790.562500,0.018478,255,0,0
148552.656250,816790.562500,0.018479,255,0,0
148552.500000,816790.437500,0.018480,255,0,0
148552.500000,816790.437500,0.018481,255,0,0
148551.984375,816790.187500,0.018482,255,0,0
148551.984375,816790.187500,0.018483,255,0,0
148551.687500,816790.125000,0.018484,255,0,0
148551.687500,816790.125000,0.018485,255,0,0
148551.546875,816790.000000,0.018486,255,0,0
148551.546875,816790.000000,0.018487,255,0,0
148551.015625,816789.875000,0.018488,255,0,0
148550.750000,816789.750000,0.018489,255,0,0
148550.484375,816789.687500,0.018490,255,0,0
148550.484375,816789.687500,0.018491,255,0,0
148549.953125,816789.500000,0.018492,255,0,0
148549.953125,816789.500000,0.018493,255,0,0
148549.671875,816789.500000,0.018494,255,0,0
148549.671875,816789.500000,0.018495,255,0,0
148549.406250,816789.375000,0.018496,255,0,0
148549.406250,816789.375000,0.018497,255,0,0
148548.875000,816789.250000,0.018498,255,0,0
148548.875000,816789.250000,0.018499,255,0,0
148548.609375,816789.250000,0.018500,255,0,0
148548.609375,816789.250000,0.018501,255,0,0
148548.328125,816789.125000,0.018502,255,0,0
148547.796875,816789.062500,0.018503,255,0,0
148547.531250,816788.937500,0.018504,255,0,0
148547.531250,816788.937500,0.018505,255,0,0
148547.250000,816788.875000,0.018506,255,0,0
148547.250000,816788.875000,0.018507,255,0,0
148547.250000,816788.875000,0.018508,255,0,0
148546.703125,816788.750000,0.018509,255,0,0
148546.437500,816788.687500,0.018510,255,0,0
148546.437500,816788.687500,0.018511,255,0,0
148546.171875,816788.687500,0.018512,255,0,0
148545.500000,816788.625000,0.018513,255,0,0
148545.234375,816788.562500,0.018514,255,0,0
148544.953125,816788.562500,0.018515,255,0,0
148544.265625,816788.437500,0.018516,255,0,0
148544.031250,816788.437500,0.018517,255,0,0
148544.031250,816788.437500,0.018518,255,0,0
148543.593750,816788.375000,0.018519,255,0,0
148543.593750,816788.375000,0.018520,255,0,0
148543.593750,816788.375000,0.018521,255,0,0
148543.078125,816788.375000,0.018522,255,0,0
148543.078125,816788.375000,0.018523,255,0,0
148542.687500,816788.312500,0.018524,255,0,0
148542.390625,816788.312500,0.018525,255,0,0
148542.390625,816788.312500,0.018526,255,0,0
148542.390625,816788.312500,0.018527,255,0,0
148541.843750,816788.250000,0.018528,255,0,0
148541.453125,816788.250000,0.018529,255,0,0
148541.171875,816788.187500,0.018530,255,0,0
148541.171875,816788.187500,0.018531,255,0,0
148540.656250,816788.062500,0.018532,255,0,0
148540.250000,816788.062500,0.018533,255,0,0
148539.984375,816788.000000,0.018534,255,0,0
148539.312500,816787.937500,0.018535,255,0,0
148539.015625,816787.812500,0.018536,255,0,0
148539.015625,816787.812500,0.018537,255,0,0
148538.750000,816787.750000,0.018538,255,0,0
148538.750000,816787.750000,0.018539,255,0,0
148538.234375,816787.625000,0.018540,255,0,0
148538.234375,816787.625000,0.018541,255,0,0
148537.953125,816787.437500,0.018542,255,0,0
148537.953125,816787.437500,0.018543,255,0,0
148537.671875,816787.375000,0.018544,255,0,0
148537.671875,816787.375000,0.018545,255,0,0
148537.671875,816787.375000,0.018546,255,0,0
148537.140625,816787.187500,0.018547,255,0,0
148537.140625,816787.187500,0.018548,255,0,0
148536.875000,816787.125000,0.018549,255,0,0
148536.875000,816787.125000,0.018550,255,0,0
148536.593750,816787.062500,0.018551,255,0,0
148536.078125,816786.937500,0.018552,255,0,0
148535.796875,816786.937500,0.018553,255,0,0
148535.406250,816786.812500,0.018554,255,0,0
148534.859375,816786.812500,0.018555,255,0,0
148534.562500,816786.750000,0.018556,255,0,0
148534.171875,816786.750000,0.018557,255,0,0
148533.656250,816786.625000,0.018558,255,0,0
148533.375000,816786.562500,0.018559,255,0,0
148532.984375,816786.562500,0.018560,255,0,0
148532.421875,816786.500000,0.018561,255,0,0
148532.421875,816786.500000,0.018562,255,0,0
148532.156250,816786.375000,0.018563,255,0,0
148532.156250,816786.375000,0.018564,255,0,0
148531.750000,816786.375000,0.018565,255,0,0
148531.218750,816786.375000,0.018566,255,0,0
148530.796875,816786.375000,0.018567,255,0,0
148530.796875,816786.375000,0.018568,255,0,0
148530.546875,816786.375000,0.018569,255,0,0
148530.546875,816786.375000,0.018570,255,0,0
148530.000000,816786.312500,0.018571,255,0,0
148529.609375,816786.312500,0.018572,255,0,0
148529.312500,816786.312500,0.018573,255,0,0
148528.812500,816786.187500,0.018574,255,0,0
148528.375000,816786.187500,0.018575,255,0,0
148528.125000,816786.187500,0.018576,255,0,0
148527.578125,816786.125000,0.018577,255,0,0
148527.171875,816786.125000,0.018578,255,0,0
148526.906250,816786.000000,0.018579,255,0,0
148526.375000,816785.937500,0.018580,255,0,0
148526.375000,816785.937500,0.018581,255,0,0
148525.937500,816785.937500,0.018582,255,0,0
148525.937500,816785.937500,0.018583,255,0,0
148525.703125,816785.875000,0.018584,255,0,0
148525.156250,816785.750000,0.018585,255,0,0
148524.875000,816785.750000,0.018586,255,0,0
148524.875000,816785.750000,0.018587,255,0,0
148524.468750,816785.750000,0.018588,255,0,0
148524.468750,816785.750000,0.018589,255,0,0
148524.468750,816785.750000,0.018590,255,0,0
148523.953125,816785.687500,0.018591,255,0,0
148523.531250,816785.687500,0.018592,255,0,0
148523.265625,816785.687500,0.018593,255,0,0
148522.718750,816785.562500,0.018594,255,0,0
148522.453125,816785.500000,0.018595,255,0,0
148522.453125,816785.500000,0.018596,255,0,0
148522.203125,816785.500000,0.018597,255,0,0
148522.203125,816785.500000,0.018598,255,0,0
148521.531250,816785.500000,0.018599,255,0,0
148521.531250,816785.500000,0.018600,255,0,0
148521.250000,816785.375000,0.018601,255,0,0
148521.250000,816785.375000,0.018602,255,0,0
148520.984375,816785.375000,0.018603,255,0,0
148520.296875,816785.312500,0.018604,255,0,0
148520.296875,816785.312500,0.018605,255,0,0
148519.906250,816785.312500,0.018606,255,0,0
148519.906250,816785.312500,0.018607,255,0,0
148519.625000,816785.250000,0.018608,255,0,0
148519.625000,816785.250000,0.018609,255,0,0
148518.953125,816785.250000,0.018610,255,0,0
148518.953125,816785.250000,0.018611,255,0,0
148518.671875,816785.187500,0.018612,255,0,0
148518.671875,816785.187500,0.018613,255,0,0
148518.281250,816785.187500,0.018614,255,0,0
148518.281250,816785.187500,0.018615,255,0,0
148518.281250,816785.187500,0.018616,255,0,0
148517.750000,816785.062500,0.018617,255,0,0
148517.750000,816785.062500,0.018618,255,0,0
148517.328125,816785.062500,0.018619,255,0,0
148517.328125,816785.062500,0.018620,255,0,0
148517.078125,816785.062500,0.018621,255,0,0
148517.078125,816785.062500,0.018622,255,0,0
148516.406250,816785.000000,0.018623,255,0,0
148516.406250,816785.000000,0.018624,255,0,0
148516.125000,816785.000000,0.018625,255,0,0
148515.734375,816785.000000,0.018626,255,0,0
148515.734375,816785.000000,0.018627,255,0,0
148515.046875,816784.937500,0.018628,255,0,0
148515.046875,816784.937500,0.018629,255,0,0
148514.765625,816784.937500,0.018630,255,0,0
148514.500000,816784.937500,0.018631,255,0,0
148514.500000,816784.937500,0.018632,255,0,0
148514.500000,816784.937500,0.018633,255,0,0
148513.828125,816784.875000,0.018634,255,0,0
148513.828125,816784.875000,0.018635,255,0,0
148513.562500,816784.875000,0.018636,255,0,0
148513.296875,816784.812500,0.018637,255,0,0
148512.625000,816784.687500,0.018638,255,0,0
148512.359375,816784.687500,0.018639,255,0,0
148512.078125,816784.687500,0.018640,255,0,0
148511.390625,816784.687500,0.018641,255,0,0
148511.156250,816784.687500,0.018642,255,0,0
148511.156250,816784.687500,0.018643,255,0,0
148510.718750,816784.687500,0.018644,255,0,0
148510.718750,816784.687500,0.018645,255,0,0
148510.718750,816784.687500,0.018646,255,0,0
148510.187500,816784.687500,0.018647,255,0,0
148510.187500,816784.687500,0.018648,255,0,0
148509.796875,816784.687500,0.018649,255,0,0
148509.796875,816784.687500,0.018650,255,0,0
148509.515625,816784.625000,0.018651,255,0,0
148509.515625,816784.625000,0.018652,255,0,0
148508.984375,816784.625000,0.018653,255,0,0
148508.984375,816784.625000,0.018654,255,0,0
148508.578125,816784.625000,0.018655,255,0,0
148508.578125,816784.625000,0.018656,255,0,0
148508.312500,816784.625000,0.018657,255,0,0
148508.312500,816784.625000,0.018658,255,0,0
148508.312500,816784.625000,0.018659,255,0,0
148507.625000,816784.562500,0.018660,255,0,0
148507.625000,816784.562500,0.018661,255,0,0
148507.375000,816784.562500,0.018662,255,0,0
148507.109375,816784.562500,0.018663,255,0,0
148507.109375,816784.562500,0.018664,255,0,0
148506.437500,816784.562500,0.018665,255,0,0
148506.437500,816784.562500,0.018666,255,0,0
148506.031250,816784.562500,0.018667,255,0,0
148505.750000,816784.562500,0.018668,255,0,0
148505.078125,816784.437500,0.018669,255,0,0
148504.796875,816784.437500,0.018670,255,0,0
148504.406250,816784.437500,0.018671,255,0,0
148503.875000,816784.437500,0.018672,255,0,0
148503.453125,816784.437500,0.018673,255,0,0
148503.203125,816784.437500,0.018674,255,0,0
148502.531250,816784.375000,0.018675,255,0,0
148502.093750,816784.312500,0.018676,255,0,0
148501.859375,816784.312500,0.018677,255,0,0
148501.187500,816784.250000,0.018678,255,0,0
148500.890625,816784.250000,0.018679,255,0,0
148500.625000,816784.187500,0.018680,255,0,0
148499.953125,816784.187500,0.018681,255,0,0
148499.671875,816784.187500,0.018682,255,0,0
148499.281250,816784.062500,0.018683,255,0,0
148498.750000,816784.000000,0.018684,255,0,0
148498.343750,816784.000000,0.018685,255,0,0
148498.078125,816783.875000,0.018686,255,0,0
148497.406250,816783.812500,0.018687,255,0,0
148497.406250,816783.812500,0.018688,255,0,0
148497.125000,816783.812500,0.018689,255,0,0
148497.125000,816783.812500,0.018690,255,0,0
148496.718750,816783.812500,0.018691,255,0,0
148496.046875,816783.750000,0.018692,255,0,0
148495.781250,816783.750000,0.018693,255,0,0
148495.500000,816783.687500,0.018694,255,0,0
148494.828125,816783.625000,0.018695,255,0,0
148494.578125,816783.562500,0.018696,255,0,0
148494.578125,816783.562500,0.018697,255,0,0
148494.296875,816783.562500,0.018698,255,0,0
148493.625000,816783.437500,0.018699,255,0,0
148493.359375,816783.375000,0.018700,255,0,0
148493.359375,816783.375000,0.018701,255,0,0
148493.078125,816783.375000,0.018702,255,0,0
148493.078125,816783.375000,0.018703,255,0,0
148493.078125,816783.375000,0.018704,255,0,0
148492.562500,816783.250000,0.018705,255,0,0
148492.265625,816783.187500,0.018706,255,0,0
148492.265625,816783.187500,0.018707,255,0,0
148491.875000,816783.187500,0.018708,255,0,0
148491.328125,816783.125000,0.018709,255,0,0
148491.328125,816783.125000,0.018710,255,0,0
148491.062500,816783.125000,0.018711,255,0,0
148491.062500,816783.125000,0.018712,255,0,0
148490.796875,816783.000000,0.018713,255,0,0
148490.125000,816783.000000,0.018714,255,0,0
148490.125000,816783.000000,0.018715,255,0,0
148489.859375,816783.000000,0.018716,255,0,0
148489.578125,816782.937500,0.018717,255,0,0
148489.578125,816782.937500,0.018718,255,0,0
148489.046875,816782.812500,0.018719,255,0,0
148489.046875,816782.812500,0.018720,255,0,0
148488.781250,816782.750000,0.018721,255,0,0
148488.500000,816782.625000,0.018722,255,0,0
148488.500000,816782.625000,0.018723,255,0,0
148488.500000,816782.625000,0.018724,255,0,0
148487.984375,816782.625000,0.018725,255,0,0
148487.703125,816782.562500,0.018726,255,0,0
148487.421875,816782.562500,0.018727,255,0,0
148487.421875,816782.562500,0.018728,255,0,0
148486.750000,816782.500000,0.018729,255,0,0
148486.750000,816782.500000,0.018730,255,0,0
148486.468750,816782.500000,0.018731,255,0,0
148486.468750,816782.500000,0.018732,255,0,0
148486.203125,816782.375000,0.018733,255,0,0
148486.203125,816782.375000,0.018734,255,0,0
148485.546875,816782.375000,0.018735,255,0,0
148485.546875,816782.375000,0.018736,255,0,0
148485.281250,816782.375000,0.018737,255,0,0
148485.281250,816782.375000,0.018738,255,0,0
148485.000000,816782.375000,0.018739,255,0,0
148485.000000,816782.375000,0.018740,255,0,0
148484.328125,816782.375000,0.018741,255,0,0
148484.328125,816782.375000,0.018742,255,0,0
148484.046875,816782.375000,0.018743,255,0,0
148484.046875,816782.375000,0.018744,255,0,0
148483.765625,816782.500000,0.018745,255,0,0
148483.765625,816782.500000,0.018746,255,0,0
148483.250000,816782.500000,0.018747,255,0,0
148482.859375,816782.500000,0.018748,255,0,0
148482.859375,816782.500000,0.018749,255,0,0
148482.578125,816782.500000,0.018750,255,0,0
148481.890625,816782.375000,0.018751,255,0,0
148481.890625,816782.375000,0.018752,255,0,0
148481.625000,816782.375000,0.018753,255,0,0
148481.359375,816782.375000,0.018754,255,0,0
148480.703125,816782.375000,0.018755,255,0,0
148480.703125,816782.375000,0.018756,255,0,0
148480.421875,816782.375000,0.018757,255,0,0
148480.421875,816782.375000,0.018758,255,0,0
148480.156250,816782.375000,0.018759,255,0,0
148480.156250,816782.375000,0.018760,255,0,0
148479.484375,816782.312500,0.018761,255,0,0
148479.484375,816782.312500,0.018762,255,0,0
148479.187500,816782.312500,0.018763,255,0,0
148478.921875,816782.312500,0.018764,255,0,0
148478.250000,816782.312500,0.018765,255,0,0
148478.000000,816782.312500,0.018766,255,0,0
148477.718750,816782.312500,0.018767,255,0,0
148477.046875,816782.312500,0.018768,255,0,0
148476.781250,816782.312500,0.018769,255,0,0
148476.500000,816782.187500,0.018770,255,0,0
148475.812500,816782.187500,0.018771,255,0,0
148475.578125,816782.187500,0.018772,255,0,0
148475.578125,816782.187500,0.018773,255,0,0
148475.296875,816782.187500,0.018774,255,0,0
148474.625000,816782.312500,0.018775,255,0,0
148474.343750,816782.312500,0.018776,255,0,0
148474.343750,816782.312500,0.018777,255,0,0
148474.078125,816782.312500,0.018778,255,0,0
148474.078125,816782.312500,0.018779,255,0,0
148474.078125,816782.312500,0.018780,255,0,0
148473.406250,816782.312500,0.018781,255,0,0
148473.140625,816782.312500,0.018782,255,0,0
148472.875000,816782.312500,0.018783,255,0,0
148472.203125,816782.312500,0.018784,255,0,0
148471.921875,816782.312500,0.018785,255,0,0
148471.656250,816782.312500,0.018786,255,0,0
148470.968750,816782.312500,0.018787,255,0,0
148470.718750,816782.312500,0.018788,255,0,0
148470.296875,816782.312500,0.018789,255,0,0
148470.296875,816782.312500,0.018790,255,0,0
148469.781250,816782.312500,0.018791,255,0,0
148469.500000,816782.312500,0.018792,255,0,0
148469.500000,816782.312500,0.018793,255,0,0
148469.093750,816782.312500,0.018794,255,0,0
148469.093750,816782.312500,0.018795,255,0,0
148468.546875,816782.312500,0.018796,255,0,0
148468.296875,816782.312500,0.018797,255,0,0
148468.015625,816782.187500,0.018798,255,0,0
148468.015625,816782.187500,0.018799,255,0,0
148467.484375,816782.187500,0.018800,255,0,0
148467.484375,816782.187500,0.018801,255,0,0
148467.218750,816782.187500,0.018802,255,0,0
148467.218750,816782.187500,0.018803,255,0,0
148466.953125,816782.187500,0.018804,255,0,0
148466.281250,816782.187500,0.018805,255,0,0
148466.281250,816782.187500,0.018806,255,0,0
148466.000000,816782.312500,0.018807,255,0,0
148465.718750,816782.312500,0.018808,255,0,0
148465.718750,816782.312500,0.018809,255,0,0
148465.046875,816782.312500,0.018810,255,0,0
148464.796875,816782.312500,0.018811,255,0,0
148464.531250,816782.312500,0.018812,255,0,0
148464.531250,816782.312500,0.018813,255,0,0
148463.843750,816782.312500,0.018814,255,0,0
148463.578125,816782.312500,0.018815,255,0,0
148463.578125,816782.312500,0.018816,255,0,0
148463.296875,816782.312500,0.018817,255,0,0
148463.296875,816782.312500,0.018818,255,0,0
148462.625000,816782.375000,0.018819,255,0,0
148462.625000,816782.375000,0.018820,255,0,0
148462.375000,816782.500000,0.018821,255,0,0
148462.093750,816782.500000,0.018822,255,0,0
148462.093750,816782.500000,0.018823,255,0,0
148462.093750,816782.500000,0.018824,255,0,0
148461.421875,816782.500000,0.018825,255,0,0
148461.031250,816782.562500,0.018826,255,0,0
148460.750000,816782.562500,0.018827,255,0,0
148460.203125,816782.562500,0.018828,255,0,0
148459.796875,816782.625000,0.018829,255,0,0
148459.796875,816782.625000,0.018830,255,0,0
148459.531250,816782.625000,0.018831,255,0,0
148459.531250,816782.625000,0.018832,255,0,0
148459.531250,816782.625000,0.018833,255,0,0
148458.859375,816782.750000,0.018834,255,0,0
148458.593750,816782.750000,0.018835,255,0,0
148458.593750,816782.750000,0.018836,255,0,0
148458.328125,816782.750000,0.018837,255,0,0
148457.656250,816782.812500,0.018838,255,0,0
148457.656250,816782.812500,0.018839,255,0,0
148457.375000,816782.812500,0.018840,255,0,0
148457.375000,816782.812500,0.018841,255,0,0
148457.093750,816782.937500,0.018842,255,0,0
148456.421875,816782.937500,0.018843,255,0,0
148456.421875,816782.937500,0.018844,255,0,0
148456.171875,816782.937500,0.018845,255,0,0
148455.750000,816783.000000,0.018846,255,0,0
148455.750000,816783.000000,0.018847,255,0,0
148455.078125,816783.000000,0.018848,255,0,0
148455.078125,816783.000000,0.018849,255,0,0
148454.812500,816783.000000,0.018850,255,0,0
148454.421875,816783.000000,0.018851,255,0,0
148453.750000,816783.000000,0.018852,255,0,0
148453.468750,816783.000000,0.018853,255,0,0
148453.078125,816783.125000,0.018854,255,0,0
148453.078125,816783.125000,0.018855,255,0,0
148452.531250,816783.125000,0.018856,255,0,0
148452.125000,816783.125000,0.018857,255,0,0
148451.843750,816783.125000,0.018858,255,0,0
148451.328125,816783.187500,0.018859,255,0,0
148450.906250,816783.187500,0.018860,255,0,0
148450.906250,816783.187500,0.018861,255,0,0
148450.656250,816783.187500,0.018862,255,0,0
148449.968750,816783.250000,0.018863,255,0,0
148449.968750,816783.250000,0.018864,255,0,0
148449.703125,816783.250000,0.018865,255,0,0
148449.703125,816783.250000,0.018866,255,0,0
148449.421875,816783.250000,0.018867,255,0,0
148449.421875,816783.250000,0.018868,255,0,0
148448.750000,816783.250000,0.018869,255,0,0
148448.750000,816783.250000,0.018870,255,0,0
148448.484375,816783.250000,0.018871,255,0,0
148448.484375,816783.250000,0.018872,255,0,0
148448.218750,816783.250000,0.018873,255,0,0
148448.218750,816783.250000,0.018874,255,0,0
148447.546875,816783.375000,0.018875,255,0,0
148447.546875,816783.375000,0.018876,255,0,0
148447.281250,816783.375000,0.018877,255,0,0
148447.281250,816783.375000,0.018878,255,0,0
148447.000000,816783.375000,0.018879,255,0,0
148447.000000,816783.375000,0.018880,255,0,0
148446.328125,816783.375000,0.018881,255,0,0
148446.046875,816783.375000,0.018882,255,0,0
148446.046875,816783.375000,0.018883,255,0,0
148445.812500,816783.437500,0.018884,255,0,0
148445.250000,816783.437500,0.018885,255,0,0
148444.984375,816783.562500,0.018886,255,0,0
148444.578125,816783.562500,0.018887,255,0,0
148444.046875,816783.562500,0.018888,255,0,0
148444.046875,816783.562500,0.018889,255,0,0
148443.781250,816783.562500,0.018890,255,0,0
148443.781250,816783.562500,0.018891,255,0,0
148443.375000,816783.562500,0.018892,255,0,0
148442.828125,816783.625000,0.018893,255,0,0
148442.546875,816783.625000,0.018894,255,0,0
148442.140625,816783.687500,0.018895,255,0,0
148442.140625,816783.687500,0.018896,255,0,0
148441.593750,816783.687500,0.018897,255,0,0
148441.343750,816783.687500,0.018898,255,0,0
148440.953125,816783.750000,0.018899,255,0,0
148440.953125,816783.750000,0.018900,255,0,0
148440.406250,816783.750000,0.018901,255,0,0
148440.125000,816783.750000,0.018902,255,0,0
148439.734375,816783.812500,0.018903,255,0,0
148439.734375,816783.812500,0.018904,255,0,0
148439.171875,816783.812500,0.018905,255,0,0
148439.171875,816783.812500,0.018906,255,0,0
148438.921875,816783.812500,0.018907,255,0,0
148438.921875,816783.812500,0.018908,255,0,0
148438.531250,816783.812500,0.018909,255,0,0
148438.531250,816783.812500,0.018910,255,0,0
148437.984375,816783.875000,0.018911,255,0,0
148437.703125,816783.875000,0.018912,255,0,0
148437.703125,816783.875000,0.018913,255,0,0
148437.296875,816783.875000,0.018914,255,0,0
148437.296875,816783.875000,0.018915,255,0,0
148437.296875,816783.875000,0.018916,255,0,0
148436.750000,816783.875000,0.018917,255,0,0
148436.500000,816784.000000,0.018918,255,0,0
148436.500000,816784.000000,0.018919,255,0,0
148436.218750,816784.000000,0.018920,255,0,0
148436.218750,816784.000000,0.018921,255,0,0
148435.546875,816784.000000,0.018922,255,0,0
148435.281250,816784.062500,0.018923,255,0,0
148435.000000,816784.062500,0.018924,255,0,0
148435.000000,816784.062500,0.018925,255,0,0
148434.312500,816784.187500,0.018926,255,0,0
148434.312500,816784.187500,0.018927,255,0,0
148434.078125,816784.187500,0.018928,255,0,0
148433.796875,816784.250000,0.018929,255,0,0
148433.125000,816784.312500,0.018930,255,0,0
148432.843750,816784.312500,0.018931,255,0,0
148432.578125,816784.375000,0.018932,255,0,0
148432.578125,816784.375000,0.018933,255,0,0
148431.906250,816784.437500,0.018934,255,0,0
148431.640625,816784.437500,0.018935,255,0,0
148431.375000,816784.562500,0.018936,255,0,0
148431.375000,816784.562500,0.018937,255,0,0
148430.703125,816784.625000,0.018938,255,0,0
148430.703125,816784.625000,0.018939,255,0,0
148430.421875,816784.687500,0.018940,255,0,0
148430.421875,816784.687500,0.018941,255,0,0
148430.156250,816784.687500,0.018942,255,0,0
148430.156250,816784.687500,0.018943,255,0,0
148429.468750,816784.875000,0.018944,255,0,0
148429.468750,816784.875000,0.018945,255,0,0
148429.234375,816784.937500,0.018946,255,0,0
148429.234375,816784.937500,0.018947,255,0,0
148428.953125,816784.937500,0.018948,255,0,0
148428.953125,816784.937500,0.018949,255,0,0
148428.953125,816784.937500,0.018950,255,0,0
148428.390625,816785.000000,0.018951,255,0,0
148428.390625,816785.000000,0.018952,255,0,0
148428.000000,816785.000000,0.018953,255,0,0
148428.000000,816785.000000,0.018954,255,0,0
148427.718750,816785.000000,0.018955,255,0,0
148427.718750,816785.000000,0.018956,255,0,0
148427.203125,816785.062500,0.018957,255,0,0
148427.203125,816785.062500,0.018958,255,0,0
148426.921875,816785.062500,0.018959,255,0,0
148426.921875,816785.062500,0.018960,255,0,0
148426.515625,816785.062500,0.018961,255,0,0
148425.984375,816785.187500,0.018962,255,0,0
148425.578125,816785.187500,0.018963,255,0,0
148425.296875,816785.187500,0.018964,255,0,0
148425.296875,816785.187500,0.018965,255,0,0
148425.296875,816785.187500,0.018966,255,0,0
148424.625000,816785.250000,0.018967,255,0,0
148424.375000,816785.312500,0.018968,255,0,0
148424.375000,816785.312500,0.018969,255,0,0
148423.953125,816785.312500,0.018970,255,0,0
148423.953125,816785.312500,0.018971,255,0,0
148423.296875,816785.375000,0.018972,255,0,0
148423.296875,816785.375000,0.018973,255,0,0
148423.015625,816785.375000,0.018974,255,0,0
148422.750000,816785.500000,0.018975,255,0,0
148422.078125,816785.562500,0.018976,255,0,0
148422.078125,816785.562500,0.018977,255,0,0
148421.796875,816785.687500,0.018978,255,0,0
148421.796875,816785.687500,0.018979,255,0,0
148421.531250,816785.687500,0.018980,255,0,0
148421.531250,816785.687500,0.018981,255,0,0
148421.531250,816785.687500,0.018982,255,0,0
148421.000000,816785.750000,0.018983,255,0,0
148421.000000,816785.750000,0.018984,255,0,0
148420.593750,816785.750000,0.018985,255,0,0
148420.593750,816785.750000,0.018986,255,0,0
148420.328125,816785.875000,0.018987,255,0,0
148420.328125,816785.875000,0.018988,255,0,0
148420.328125,816785.875000,0.018989,255,0,0
148419.765625,816785.937500,0.018990,255,0,0
148419.765625,816785.937500,0.018991,255,0,0
148419.531250,816786.000000,0.018992,255,0,0
148419.531250,816786.000000,0.018993,255,0,0
148419.250000,816786.125000,0.018994,255,0,0
148418.703125,816786.312500,0.018995,255,0,0
148418.421875,816786.375000,0.018996,255,0,0
148418.031250,816786.375000,0.018997,255,0,0
148417.500000,816786.625000,0.018998,255,0,0
148417.500000,816786.625000,0.018999,255,0,0
148417.218750,816786.750000,0.019000,255,0,0
148417.218750,816786.750000,0.019001,255,0,0
148416.953125,816786.812500,0.019002,255,0,0
148416.953125,816786.812500,0.019003,255,0,0
148416.421875,816787.062500,0.019004,255,0,0
148416.421875,816787.062500,0.019005,255,0,0
148416.000000,816787.125000,0.019006,255,0,0
148416.000000,816787.125000,0.019007,255,0,0
148415.750000,816787.312500,0.019008,255,0,0
148415.750000,816787.312500,0.019009,255,0,0
148415.750000,816787.312500,0.019010,255,0,0
148415.187500,816787.437500,0.019011,255,0,0
148414.921875,816787.625000,0.019012,255,0,0
148414.921875,816787.625000,0.019013,255,0,0
148414.671875,816787.687500,0.019014,255,0,0
148414.671875,816787.687500,0.019015,255,0,0
148414.000000,816787.812500,0.019016,255,0,0
148414.000000,816787.812500,0.019017,255,0,0
148413.718750,816787.937500,0.019018,255,0,0
148413.453125,816788.000000,0.019019,255,0,0
148413.453125,816788.000000,0.019020,255,0,0
148412.906250,816788.187500,0.019021,255,0,0
148412.906250,816788.187500,0.019022,255,0,0
148412.640625,816788.250000,0.019023,255,0,0
148412.250000,816788.312500,0.019024,255,0,0
148412.250000,816788.312500,0.019025,255,0,0
148412.250000,816788.312500,0.019026,255,0,0
148411.703125,816788.437500,0.019027,255,0,0
148411.703125,816788.437500,0.019028,255,0,0
148411.296875,816788.562500,0.019029,255,0,0
148411.031250,816788.625000,0.019030,255,0,0
148411.031250,816788.625000,0.019031,255,0,0
148410.343750,816788.687500,0.019032,255,0,0
148410.078125,816788.750000,0.019033,255,0,0
148410.078125,816788.750000,0.019034,255,0,0
148409.828125,816788.875000,0.019035,255,0,0
148409.828125,816788.875000,0.019036,255,0,0
148409.828125,816788.875000,0.019037,255,0,0
148409.156250,816789.062500,0.019038,255,0,0
148408.734375,816789.062500,0.019039,255,0,0
148408.734375,816789.062500,0.019040,255,0,0
148408.468750,816789.062500,0.019041,255,0,0
148408.468750,816789.062500,0.019042,255,0,0
148407.796875,816789.250000,0.019043,255,0,0
148407.390625,816789.312500,0.019044,255,0,0
148407.125000,816789.312500,0.019045,255,0,0
148406.453125,816789.375000,0.019046,255,0,0
148406.187500,816789.500000,0.019047,255,0,0
148406.187500,816789.500000,0.019048,255,0,0
148405.890625,816789.500000,0.019049,255,0,0
148405.218750,816789.562500,0.019050,255,0,0
148405.218750,816789.562500,0.019051,255,0,0
148404.828125,816789.562500,0.019052,255,0,0
148404.828125,816789.562500,0.019053,255,0,0
148404.546875,816789.687500,0.019054,255,0,0
148404.546875,816789.687500,0.019055,255,0,0
148404.546875,816789.687500,0.019056,255,0,0
148403.875000,816789.750000,0.019057,255,0,0
148403.875000,816789.750000,0.019058,255,0,0
148403.625000,816789.750000,0.019059,255,0,0
148403.343750,816789.750000,0.019060,255,0,0
148402.671875,816789.937500,0.019061,255,0,0
148402.671875,816789.937500,0.019062,255,0,0
148402.406250,816790.000000,0.019063,255,0,0
148402.000000,816790.000000,0.019064,255,0,0
148402.000000,816790.000000,0.019065,255,0,0
148401.453125,816790.187500,0.019066,255,0,0
148401.453125,816790.187500,0.019067,255,0,0
148401.203125,816790.312500,0.019068,255,0,0
148401.203125,816790.312500,0.019069,255,0,0
148400.937500,816790.312500,0.019070,255,0,0
148400.937500,816790.312500,0.019071,255,0,0
148400.250000,816790.437500,0.019072,255,0,0
148399.968750,816790.500000,0.019073,255,0,0
148399.703125,816790.500000,0.019074,255,0,0
148399.703125,816790.500000,0.019075,255,0,0
148399.703125,816790.500000,0.019076,255,0,0
148399.171875,816790.687500,0.019077,255,0,0
148399.171875,816790.687500,0.019078,255,0,0
148398.906250,816790.750000,0.019079,255,0,0
148398.906250,816790.750000,0.019080,255,0,0
148398.625000,816790.750000,0.019081,255,0,0
148398.625000,816790.750000,0.019082,255,0,0
148398.625000,816790.750000,0.019083,255,0,0
148398.093750,816790.937500,0.019084,255,0,0
148397.828125,816790.937500,0.019085,255,0,0
148397.421875,816791.000000,0.019086,255,0,0
148396.875000,816791.062500,0.019087,255,0,0
148396.593750,816791.062500,0.019088,255,0,0
148396.468750,816791.125000,0.019089,255,0,0
148396.468750,816791.125000,0.019090,255,0,0
148395.921875,816791.187500,0.019091,255,0,0
148395.687500,816791.187500,0.019092,255,0,0
148395.687500,816791.187500,0.019093,255,0,0
148395.390625,816791.187500,0.019094,255,0,0
148395.390625,816791.187500,0.019095,255,0,0
148395.390625,816791.187500,0.019096,255,0,0
148395.000000,816791.312500,0.019097,255,0,0
148394.718750,816791.187500,0.019098,255,0,0
148394.718750,816791.187500,0.019099,255,0,0
148394.453125,816791.187500,0.019100,255,0,0
148394.453125,816791.187500,0.019101,255,0,0
148394.453125,816791.187500,0.019102,255,0,0
148394.046875,816791.187500,0.019103,255,0,0
148394.046875,816791.187500,0.019104,255,0,0
148393.781250,816791.187500,0.019105,255,0,0
148393.656250,816791.187500,0.019106,255,0,0
148393.656250,816791.187500,0.019107,255,0,0
148393.656250,816791.187500,0.019108,255,0,0
148393.109375,816791.125000,0.019109,255,0,0
148392.984375,816791.125000,0.019110,255,0,0
148392.703125,816791.125000,0.019111,255,0,0
148392.312500,816791.062500,0.019112,255,0,0
148392.312500,816791.062500,0.019113,255,0,0
148392.015625,816791.000000,0.019114,255,0,0
148391.750000,816791.000000,0.019115,255,0,0
148391.750000,816791.000000,0.019116,255,0,0
148391.343750,816790.812500,0.019117,255,0,0
148391.343750,816790.812500,0.019118,255,0,0
148391.078125,816790.750000,0.019119,255,0,0
148390.953125,816790.687500,0.019120,255,0,0
148390.546875,816790.500000,0.019121,255,0,0
148390.281250,816790.437500,0.019122,255,0,0
148390.140625,816790.375000,0.019123,255,0,0
148390.140625,816790.375000,0.019124,255,0,0
148390.140625,816790.375000,0.019125,255,0,0
148389.734375,816790.187500,0.019126,255,0,0
148389.468750,816790.187500,0.019127,255,0,0
148389.328125,816790.125000,0.019128,255,0,0
148388.921875,816789.937500,0.019129,255,0,0
148388.640625,816789.937500,0.019130,255,0,0
148388.640625,816789.937500,0.019131,255,0,0
148388.531250,816789.875000,0.019132,255,0,0
148387.968750,816789.750000,0.019133,255,0,0
148387.968750,816789.750000,0.019134,255,0,0
148387.734375,816789.750000,0.019135,255,0,0
148387.453125,816789.687500,0.019136,255,0,0
148387.453125,816789.687500,0.019137,255,0,0
148387.062500,816789.500000,0.019138,255,0,0
148386.890625,816789.375000,0.019139,255,0,0
148386.656250,816789.312500,0.019140,255,0,0
148386.218750,816789.125000,0.019141,255,0,0
148386.093750,816789.062500,0.019142,255,0,0
148386.093750,816789.062500,0.019143,255,0,0
148385.968750,816788.937500,0.019144,255,0,0
148385.968750,816788.937500,0.019145,255,0,0
148385.968750,816788.937500,0.019146,255,0,0
148385.546875,816788.687500,0.019147,255,0,0
148385.546875,816788.687500,0.019148,255,0,0
148385.421875,816788.625000,0.019149,255,0,0
148385.421875,816788.625000,0.019150,255,0,0
148385.296875,816788.437500,0.019151,255,0,0
148385.296875,816788.437500,0.019152,255,0,0
148384.875000,816788.312500,0.019153,255,0,0
148384.875000,816788.312500,0.019154,255,0,0
148384.625000,816788.250000,0.019155,255,0,0
148384.484375,816788.062500,0.019156,255,0,0
148384.484375,816788.062500,0.019157,255,0,0
148384.078125,816787.937500,0.019158,255,0,0
148383.953125,816787.812500,0.019159,255,0,0
148383.953125,816787.812500,0.019160,255,0,0
148383.671875,816787.750000,0.019161,255,0,0
148383.671875,816787.750000,0.019162,255,0,0
148383.671875,816787.750000,0.019163,255,0,0
148383.281250,816787.625000,0.019164,255,0,0
148383.281250,816787.625000,0.019165,255,0,0
148383.125000,816787.437500,0.019166,255,0,0
148383.125000,816787.437500,0.019167,255,0,0
148382.875000,816787.437500,0.019168,255,0,0
148382.609375,816787.312500,0.019169,255,0,0
148382.328125,816787.187500,0.019170,255,0,0
148382.203125,816787.125000,0.019171,255,0,0
148382.203125,816787.125000,0.019172,255,0,0
148381.781250,816787.000000,0.019173,255,0,0
148381.515625,816786.937500,0.019174,255,0,0
148381.375000,816786.937500,0.019175,255,0,0
148380.843750,816786.812500,0.019176,255,0,0
148380.843750,816786.812500,0.019177,255,0,0
148380.703125,816786.750000,0.019178,255,0,0
148380.453125,816786.625000,0.019179,255,0,0
148380.031250,816786.562500,0.019180,255,0,0
148379.781250,816786.500000,0.019181,255,0,0
148379.625000,816786.375000,0.019182,255,0,0
148379.625000,816786.375000,0.019183,255,0,0
148379.109375,816786.375000,0.019184,255,0,0
148379.109375,816786.375000,0.019185,255,0,0
148378.937500,816786.312500,0.019186,255,0,0
148378.937500,816786.312500,0.019187,255,0,0
148378.703125,816786.187500,0.019188,255,0,0
148378.140625,816786.000000,0.019189,255,0,0
148378.031250,816785.937500,0.019190,255,0,0
148378.031250,816785.937500,0.019191,255,0,0
148377.750000,816785.937500,0.019192,255,0,0
148377.750000,816785.937500,0.019193,255,0,0
148377.203125,816785.750000,0.019194,255,0,0
148377.203125,816785.750000,0.019195,255,0,0
148376.921875,816785.750000,0.019196,255,0,0
148376.921875,816785.750000,0.019197,255,0,0
148376.671875,816785.687500,0.019198,255,0,0
148376.671875,816785.687500,0.019199,255,0,0
148376.671875,816785.687500,0.019200,255,0,0
148376.125000,816785.687500,0.019201,255,0,0
148376.000000,816785.562500,0.019202,255,0,0
148376.000000,816785.562500,0.019203,255,0,0
148375.718750,816785.500000,0.019204,255,0,0
148375.718750,816785.500000,0.019205,255,0,0
148375.171875,816785.312500,0.019206,255,0,0
148375.171875,816785.312500,0.019207,255,0,0
148374.921875,816785.312500,0.019208,255,0,0
148374.921875,816785.312500,0.019209,255,0,0
148374.656250,816785.250000,0.019210,255,0,0
148374.250000,816785.062500,0.019211,255,0,0
148373.984375,816785.062500,0.019212,255,0,0
148373.687500,816785.000000,0.019213,255,0,0
148373.296875,816784.875000,0.019214,255,0,0
148373.015625,816784.875000,0.019215,255,0,0
148372.750000,816784.812500,0.019216,255,0,0
148372.343750,816784.687500,0.019217,255,0,0
148372.343750,816784.687500,0.019218,255,0,0
148372.078125,816784.625000,0.019219,255,0,0
148371.828125,816784.625000,0.019220,255,0,0
148371.406250,816784.562500,0.019221,255,0,0
148371.140625,816784.437500,0.019222,255,0,0
148370.875000,816784.375000,0.019223,255,0,0
148370.468750,816784.312500,0.019224,255,0,0
148370.468750,816784.312500,0.019225,255,0,0
148370.203125,816784.312500,0.019226,255,0,0
148369.921875,816784.250000,0.019227,255,0,0
148369.921875,816784.250000,0.019228,255,0,0
148369.406250,816784.187500,0.019229,255,0,0
148369.250000,816784.062500,0.019230,255,0,0
148368.968750,816784.000000,0.019231,255,0,0
148368.968750,816784.000000,0.019232,255,0,0
148368.968750,816784.000000,0.019233,255,0,0
148368.578125,816783.875000,0.019234,255,0,0
148368.578125,816783.875000,0.019235,255,0,0
148368.328125,816783.812500,0.019236,255,0,0
148368.328125,816783.812500,0.019237,255,0,0
148368.046875,816783.812500,0.019238,255,0,0
148367.640625,816783.687500,0.019239,255,0,0
148367.375000,816783.687500,0.019240,255,0,0
148367.093750,816783.687500,0.019241,255,0,0
148367.093750,816783.687500,0.019242,255,0,0
148367.093750,816783.687500,0.019243,255,0,0
148366.562500,816783.625000,0.019244,255,0,0
148366.296875,816783.625000,0.019245,255,0,0
148366.296875,816783.625000,0.019246,255,0,0
148366.031250,816783.625000,0.019247,255,0,0
148365.468750,816783.625000,0.019248,255,0,0
148365.218750,816783.625000,0.019249,255,0,0
148364.953125,816783.625000,0.019250,255,0,0
148364.390625,816783.625000,0.019251,255,0,0
148364.125000,816783.625000,0.019252,255,0,0
148364.125000,816783.625000,0.019253,255,0,0
148363.875000,816783.687500,0.019254,255,0,0
148363.875000,816783.687500,0.019255,255,0,0
148363.328125,816783.750000,0.019256,255,0,0
148363.328125,816783.750000,0.019257,255,0,0
148363.187500,816783.750000,0.019258,255,0,0
148363.187500,816783.750000,0.019259,255,0,0
148362.921875,816783.812500,0.019260,255,0,0
148362.921875,816783.812500,0.019261,255,0,0
148362.375000,816783.875000,0.019262,255,0,0
148362.375000,816783.875000,0.019263,255,0,0
148362.125000,816783.875000,0.019264,255,0,0
148362.125000,816783.875000,0.019265,255,0,0
148361.984375,816784.000000,0.019266,255,0,0
148361.984375,816784.000000,0.019267,255,0,0
148361.453125,816784.062500,0.019268,255,0,0
148361.171875,816784.062500,0.019269,255,0,0
148360.906250,816784.062500,0.019270,255,0,0
148360.500000,816784.187500,0.019271,255,0,0
148360.500000,816784.187500,0.019272,255,0,0
148360.218750,816784.187500,0.019273,255,0,0
148359.953125,816784.187500,0.019274,255,0,0
148359.953125,816784.187500,0.019275,255,0,0
148359.421875,816784.250000,0.019276,255,0,0
148359.281250,816784.250000,0.019277,255,0,0
148359.031250,816784.250000,0.019278,255,0,0
148359.031250,816784.250000,0.019279,255,0,0
148359.031250,816784.250000,0.019280,255,0,0
148358.468750,816784.250000,0.019281,255,0,0
148358.468750,816784.250000,0.019282,255,0,0
148358.343750,816784.312500,0.019283,255,0,0
148358.078125,816784.312500,0.019284,255,0,0
148358.078125,816784.312500,0.019285,255,0,0
148358.078125,816784.312500,0.019286,255,0,0
148357.531250,816784.312500,0.019287,255,0,0
148357.265625,816784.375000,0.019288,255,0,0
148357.125000,816784.375000,0.019289,255,0,0
148357.125000,816784.375000,0.019290,255,0,0
148357.125000,816784.375000,0.019291,255,0,0
148356.593750,816784.375000,0.019292,255,0,0
148356.328125,816784.375000,0.019293,255,0,0
148356.328125,816784.375000,0.019294,255,0,0
148356.062500,816784.312500,0.019295,255,0,0
148356.062500,816784.312500,0.019296,255,0,0
148356.062500,816784.312500,0.019297,255,0,0
148355.656250,816784.312500,0.019298,255,0,0
148355.375000,816784.312500,0.019299,255,0,0
148355.375000,816784.312500,0.019300,255,0,0
148355.093750,816784.312500,0.019301,255,0,0
148355.093750,816784.312500,0.019302,255,0,0
148354.562500,816784.312500,0.019303,255,0,0
148354.296875,816784.312500,0.019304,255,0,0
148354.296875,816784.312500,0.019305,255,0,0
148354.031250,816784.312500,0.019306,255,0,0
148353.500000,816784.312500,0.019307,255,0,0
148353.500000,816784.312500,0.019308,255,0,0
148353.218750,816784.375000,0.019309,255,0,0
148352.953125,816784.375000,0.019310,255,0,0
148352.421875,816784.375000,0.019311,255,0,0
148352.281250,816784.375000,0.019312,255,0,0
148352.000000,816784.437500,0.019313,255,0,0
148351.484375,816784.437500,0.019314,255,0,0
148351.328125,816784.562500,0.019315,255,0,0
148351.078125,816784.625000,0.019316,255,0,0
148351.078125,816784.625000,0.019317,255,0,0
148350.515625,816784.687500,0.019318,255,0,0
148350.515625,816784.687500,0.019319,255,0,0
148350.250000,816784.687500,0.019320,255,0,0
148350.125000,816784.812500,0.019321,255,0,0
148349.578125,816784.875000,0.019322,255,0,0
148349.312500,816784.875000,0.019323,255,0,0
148349.046875,816784.875000,0.019324,255,0,0
148348.500000,816784.875000,0.019325,255,0,0
148348.375000,816784.875000,0.019326,255,0,0
148348.109375,816784.875000,0.019327,255,0,0
148348.109375,816784.875000,0.019328,255,0,0
148347.703125,816784.875000,0.019329,255,0,0
148347.703125,816784.875000,0.019330,255,0,0
148347.437500,816784.875000,0.019331,255,0,0
148347.437500,816784.875000,0.019332,255,0,0
148347.140625,816784.875000,0.019333,255,0,0
148347.140625,816784.875000,0.019334,255,0,0
148347.140625,816784.875000,0.019335,255,0,0
148346.750000,816784.875000,0.019336,255,0,0
148346.750000,816784.875000,0.019337,255,0,0
148346.468750,816784.875000,0.019338,255,0,0
148346.468750,816784.875000,0.019339,255,0,0
148346.234375,816784.875000,0.019340,255,0,0
148346.234375,816784.875000,0.019341,255,0,0
148345.671875,816784.875000,0.019342,255,0,0
148345.671875,816784.875000,0.019343,255,0,0
148345.406250,816784.937500,0.019344,255,0,0
148345.406250,816784.937500,0.019345,255,0,0
148345.265625,816784.937500,0.019346,255,0,0
148345.265625,816784.937500,0.019347,255,0,0
148344.875000,816785.000000,0.019348,255,0,0
148344.875000,816785.000000,0.019349,255,0,0
148344.593750,816785.000000,0.019350,255,0,0
148344.468750,816785.062500,0.019351,255,0,0
148344.468750,816785.062500,0.019352,255,0,0
148344.046875,816785.062500,0.019353,255,0,0
148344.046875,816785.062500,0.019354,255,0,0
148343.796875,816785.062500,0.019355,255,0,0
148343.796875,816785.062500,0.019356,255,0,0
148343.656250,816785.062500,0.019357,255,0,0
148343.125000,816785.062500,0.019358,255,0,0
148342.859375,816785.062500,0.019359,255,0,0
148342.859375,816785.062500,0.019360,255,0,0
148342.687500,816785.187500,0.019361,255,0,0
148342.687500,816785.187500,0.019362,255,0,0
148342.187500,816785.187500,0.019363,255,0,0
148342.187500,816785.187500,0.019364,255,0,0
148341.890625,816785.187500,0.019365,255,0,0
148341.890625,816785.187500,0.019366,255,0,0
148341.781250,816785.187500,0.019367,255,0,0
148341.781250,816785.187500,0.019368,255,0,0
148341.375000,816785.187500,0.019369,255,0,0
148341.375000,816785.187500,0.019370,255,0,0
148341.093750,816785.187500,0.019371,255,0,0
148340.828125,816785.187500,0.019372,255,0,0
148340.281250,816785.187500,0.019373,255,0,0
148340.015625,816785.250000,0.019374,255,0,0
148339.750000,816785.250000,0.019375,255,0,0
148339.750000,816785.250000,0.019376,255,0,0
148339.750000,816785.250000,0.019377,255,0,0
148339.343750,816785.250000,0.019378,255,0,0
148339.343750,816785.250000,0.019379,255,0,0
148339.078125,816785.250000,0.019380,255,0,0
148339.078125,816785.250000,0.019381,255,0,0
148338.796875,816785.312500,0.019382,255,0,0
148338.796875,816785.312500,0.019383,255,0,0
148338.796875,816785.312500,0.019384,255,0,0
148338.281250,816785.312500,0.019385,255,0,0
148338.281250,816785.312500,0.019386,255,0,0
148338.125000,816785.312500,0.019387,255,0,0
148337.843750,816785.312500,0.019388,255,0,0
148337.843750,816785.312500,0.019389,255,0,0
148337.437500,816785.312500,0.019390,255,0,0
148337.437500,816785.312500,0.019391,255,0,0
148337.171875,816785.312500,0.019392,255,0,0
148336.937500,816785.312500,0.019393,255,0,0
148336.531250,816785.375000,0.019394,255,0,0
148336.250000,816785.375000,0.019395,255,0,0
148336.250000,816785.375000,0.019396,255,0,0
148335.968750,816785.375000,0.019397,255,0,0
148335.968750,816785.375000,0.019398,255,0,0
148335.578125,816785.500000,0.019399,255,0,0
148335.296875,816785.500000,0.019400,255,0,0
148335.171875,816785.375000,0.019401,255,0,0
148335.171875,816785.375000,0.019402,255,0,0
148334.625000,816785.375000,0.019403,255,0,0
148334.500000,816785.375000,0.019404,255,0,0
148334.500000,816785.375000,0.019405,255,0,0
148334.234375,816785.375000,0.019406,255,0,0
148333.828125,816785.375000,0.019407,255,0,0
148333.828125,816785.375000,0.019408,255,0,0
148333.546875,816785.312500,0.019409,255,0,0
148333.265625,816785.312500,0.019410,255,0,0
148332.875000,816785.312500,0.019411,255,0,0
148332.593750,816785.312500,0.019412,255,0,0
148332.328125,816785.312500,0.019413,255,0,0
148332.328125,816785.312500,0.019414,255,0,0
148332.328125,816785.312500,0.019415,255,0,0
148331.921875,816785.250000,0.019416,255,0,0
148331.921875,816785.250000,0.019417,255,0,0
148331.687500,816785.250000,0.019418,255,0,0
148331.515625,816785.187500,0.019419,255,0,0
148331.515625,816785.187500,0.019420,255,0,0
148331.000000,816785.187500,0.019421,255,0,0
148331.000000,816785.187500,0.019422,255,0,0
148330.718750,816785.062500,0.019423,255,0,0
148330.718750,816785.062500,0.019424,255,0,0
148330.453125,816785.062500,0.019425,255,0,0
148330.453125,816785.062500,0.019426,255,0,0
148330.453125,816785.062500,0.019427,255,0,0
148329.906250,816785.000000,0.019428,255,0,0
148329.906250,816785.000000,0.019429,255,0,0
148329.656250,816785.000000,0.019430,255,0,0
148329.375000,816784.937500,0.019431,255,0,0
148329.375000,816784.937500,0.019432,255,0,0
148328.812500,816785.000000,0.019433,255,0,0
148328.578125,816785.000000,0.019434,255,0,0
148328.578125,816785.000000,0.019435,255,0,0
148328.421875,816785.000000,0.019436,255,0,0
148327.906250,816785.062500,0.019437,255,0,0
148327.625000,816785.187500,0.019438,255,0,0
148327.343750,816785.187500,0.019439,255,0,0
148326.796875,816785.187500,0.019440,255,0,0
148326.671875,816785.250000,0.019441,255,0,0
148326.406250,816785.250000,0.019442,255,0,0
148326.000000,816785.312500,0.019443,255,0,0
148325.734375,816785.312500,0.019444,255,0,0
148325.734375,816785.312500,0.019445,255,0,0
148325.593750,816785.375000,0.019446,255,0,0
148325.593750,816785.375000,0.019447,255,0,0
148325.593750,816785.375000,0.019448,255,0,0
148325.203125,816785.562500,0.019449,255,0,0
148325.203125,816785.562500,0.019450,255,0,0
148324.921875,816785.687500,0.019451,255,0,0
148324.796875,816785.687500,0.019452,255,0,0
148324.796875,816785.687500,0.019453,255,0,0
148324.250000,816785.750000,0.019454,255,0,0
148324.125000,816785.750000,0.019455,255,0,0
148323.859375,816785.875000,0.019456,255,0,0
148323.859375,816785.875000,0.019457,255,0,0
148323.453125,816785.875000,0.019458,255,0,0
148323.171875,816785.875000,0.019459,255,0,0
148323.171875,816785.875000,0.019460,255,0,0
148322.890625,816785.875000,0.019461,255,0,0
148322.500000,816785.937500,0.019462,255,0,0
148322.218750,816785.937500,0.019463,255,0,0
148321.953125,816785.937500,0.019464,255,0,0
148321.421875,816786.000000,0.019465,255,0,0
148321.296875,816786.125000,0.019466,255,0,0
148321.015625,816786.125000,0.019467,255,0,0
148321.015625,816786.125000,0.019468,255,0,0
148320.484375,816786.125000,0.019469,255,0,0
148320.187500,816786.125000,0.019470,255,0,0
148319.953125,816786.125000,0.019471,255,0,0
148319.953125,816786.125000,0.019472,255,0,0
148319.406250,816786.187500,0.019473,255,0,0
148319.406250,816786.187500,0.019474,255,0,0
148319.125000,816786.187500,0.019475,255,0,0
148318.843750,816786.187500,0.019476,255,0,0
148318.843750,816786.187500,0.019477,255,0,0
148318.453125,816786.187500,0.019478,255,0,0
148318.203125,816786.312500,0.019479,255,0,0
148318.203125,816786.312500,0.019480,255,0,0
148317.921875,816786.312500,0.019481,255,0,0
148317.375000,816786.312500,0.019482,255,0,0
148317.109375,816786.375000,0.019483,255,0,0
148317.109375,816786.375000,0.019484,255,0,0
148316.843750,816786.375000,0.019485,255,0,0
148316.843750,816786.375000,0.019486,255,0,0
148316.296875,816786.375000,0.019487,255,0,0
148316.296875,816786.375000,0.019488,255,0,0
148315.906250,816786.375000,0.019489,255,0,0
148315.906250,816786.375000,0.019490,255,0,0
148315.625000,816786.375000,0.019491,255,0,0
148315.093750,816786.375000,0.019492,255,0,0
148314.828125,816786.375000,0.019493,255,0,0
148314.828125,816786.375000,0.019494,255,0,0
148314.562500,816786.375000,0.019495,255,0,0
148314.562500,816786.375000,0.019496,255,0,0
148314.562500,816786.375000,0.019497,255,0,0
148314.000000,816786.375000,0.019498,255,0,0
148314.000000,816786.375000,0.019499,255,0,0
148313.750000,816786.375000,0.019500,255,0,0
148313.468750,816786.375000,0.019501,255,0,0
148313.468750,816786.375000,0.019502,255,0,0
148312.921875,816786.375000,0.019503,255,0,0
148312.671875,816786.500000,0.019504,255,0,0
