X,Y,Z,R,G,B
1066.367554,-793.208740,4.226300,0,0,255
1066.213135,-793.760986,4.226400,0,0,255
1066.009644,-794.474243,4.226500,0,0,255
1065.518188,-796.130981,4.226600,0,0,255
1058.856567,-798.247864,4.226700,0,0,255
1059.249634,-800.916992,4.226800,0,0,255
1052.258179,-799.145203,4.226900,0,0,255
1052.883057,-801.515198,4.227000,0,0,255
1063.773804,-250.620193,4.227100,0,0,255
1064.072144,-250.275040,4.227200,0,0,255
1064.370483,-249.929916,4.227300,0,0,255
1064.668823,-249.584763,4.227400,0,0,255
1064.967163,-249.239624,4.227500,0,0,255
1065.265503,-248.894470,4.227600,0,0,255
1065.644531,-248.411270,4.227700,0,0,255
1068.512085,-244.821777,4.227800,0,0,255
1062.243530,-249.446716,4.227900,0,0,255
1066.995850,-243.671310,4.228000,0,0,255
1072.299072,-223.722015,4.228100,0,0,255
1071.958618,-223.491913,4.228200,0,0,255
1071.618286,-223.261810,4.228300,0,0,255
1071.067139,-222.916672,4.228400,0,0,255
1070.396851,-222.456482,4.228500,0,0,255
1070.168579,-221.766205,4.228600,0,0,255
1067.701294,-219.787369,4.228700,0,0,255
1059.397095,-247.513901,4.228800,0,0,255
1059.677979,-247.122726,4.228900,0,0,255
1060.011230,-246.662552,4.229000,0,0,255
1060.327148,-246.363419,4.229100,0,0,255
1060.916870,-245.788177,4.229200,0,0,255
1063.549194,-242.474808,4.229300,0,0,255
1066.430786,-221.697159,4.229400,0,0,255
1066.764160,-221.950272,4.229500,0,0,255
1067.255493,-222.318420,4.229600,0,0,255
1067.595947,-222.548523,4.229700,0,0,255
1067.936401,-222.778610,4.229800,0,0,255
1068.276855,-223.008713,4.229900,0,0,255
1068.617310,-223.238815,4.230000,0,0,255
1068.957764,-223.468903,4.230100,0,0,255
1069.298218,-223.699005,4.230200,0,0,255
1069.638672,-223.929108,4.230300,0,0,255
1070.144165,-224.320267,4.230400,0,0,255
1072.214844,-225.631805,4.230500,0,0,255
1060.625488,-229.842545,4.230600,0,0,255
1057.631714,-234.329422,4.230700,0,0,255
1065.363647,-251.747665,4.230800,0,0,255
1065.648071,-251.356491,4.230900,0,0,255
1066.009644,-250.873291,4.231000,0,0,255
1066.293823,-250.482132,4.231100,0,0,255
1066.578125,-250.090973,4.231200,0,0,255
1066.862427,-249.699814,4.231300,0,0,255
1067.146729,-249.308640,4.231400,0,0,255
1067.581909,-248.756424,4.231500,0,0,255
1069.747437,-245.857208,4.231600,0,0,255
1065.356689,-223.123764,4.231700,0,0,255
1065.697144,-223.353851,4.231800,0,0,255
1066.037598,-223.583954,4.231900,0,0,255
1066.378052,-223.814056,4.232000,0,0,255
1066.718506,-224.044128,4.232100,0,0,255
1067.059082,-224.274231,4.232200,0,0,255
1067.399414,-224.504333,4.232300,0,0,255
1067.739868,-224.734421,4.232400,0,0,255
1068.080322,-224.964523,4.232500,0,0,255
1068.420776,-225.194626,4.232600,0,0,255
1068.761230,-225.424713,4.232700,0,0,255
1069.284180,-225.723831,4.232800,0,0,255
1071.762085,-227.265472,4.232900,0,0,255
1062.001465,-230.877975,4.233000,0,0,255
1058.895264,-235.525909,4.233100,0,0,255
1053.756836,-243.901398,4.233200,0,0,255
1054.051636,-243.533249,4.233300,0,0,255
1054.346558,-243.165100,4.233400,0,0,255
1054.862427,-242.543823,4.233500,0,0,255
1057.291260,-239.759674,4.233600,0,0,255
1061.850464,-226.575180,4.233700,0,0,255
1062.190918,-226.805283,4.233800,0,0,255
1062.531372,-227.035385,4.233900,0,0,255
1062.871704,-227.265472,4.234000,0,0,255
1063.212158,-227.495575,4.234100,0,0,255
1063.552612,-227.725677,4.234200,0,0,255
1063.893066,-227.955765,4.234300,0,0,255
1064.233643,-228.185867,4.234400,0,0,255
1064.574097,-228.415970,4.234500,0,0,255
1064.914551,-228.646057,4.234600,0,0,255
1065.255005,-228.876144,4.234700,0,0,255
1065.595459,-229.106247,4.234800,0,0,255
1065.935791,-229.336334,4.234900,0,0,255
1066.276245,-229.566437,4.235000,0,0,255
1066.648315,-229.704483,4.235100,0,0,255
1066.988770,-229.934586,4.235200,0,0,255
1067.329224,-230.164688,4.235300,0,0,255
1067.669678,-230.394775,4.235400,0,0,255
1068.010132,-230.624878,4.235500,0,0,255
1068.350586,-230.854980,4.235600,0,0,255
1068.691040,-231.085068,4.235700,0,0,255
1069.031494,-231.315170,4.235800,0,0,255
1069.371826,-231.545273,4.235900,0,0,255
1069.712280,-231.775345,4.236000,0,0,255
1070.052734,-232.005447,4.236100,0,0,255
1070.393311,-232.235550,4.236200,0,0,255
1070.733765,-232.465637,4.236300,0,0,255
1071.225098,-232.856796,4.236400,0,0,255
1075.622803,-235.779022,4.236500,0,0,255
1072.158691,-231.499237,4.236600,0,0,255
1071.884888,-231.890396,4.236700,0,0,255
1071.611084,-232.281570,4.236800,0,0,255
1071.225098,-232.856796,4.236900,0,0,255
1070.930176,-233.224945,4.237000,0,0,255
1070.635376,-233.593109,4.237100,0,0,255
1070.298462,-234.007278,4.237200,0,0,255
1069.477173,-235.065735,4.237300,0,0,255
1051.261475,-242.267715,4.237400,0,0,255
1051.545776,-241.876556,4.237500,0,0,255
1051.830078,-241.485397,4.237600,0,0,255
1052.114258,-241.094223,4.237700,0,0,255
1052.398560,-240.703064,4.237800,0,0,255
1052.682861,-240.311905,4.237900,0,0,255
1053.153198,-239.690643,4.238000,0,0,255
1054.504517,-238.010956,4.238100,0,0,255
1073.787231,-237.987946,4.238200,0,0,255
1073.446777,-237.757843,4.238300,0,0,255
1073.106323,-237.527740,4.238400,0,0,255
1072.765869,-237.297653,4.238500,0,0,255
1072.334229,-237.021545,4.238600,0,0,255
1071.993652,-236.791443,4.238700,0,0,255
1071.653198,-236.561340,4.238800,0,0,255
1071.312744,-236.331253,4.238900,0,0,255
1070.961792,-236.124161,4.239000,0,0,255
1070.624878,-235.894058,4.239100,0,0,255
1070.287964,-235.663986,4.239200,0,0,255
1069.951050,-235.433884,4.239300,0,0,255
1069.477173,-235.065735,4.239400,0,0,255
1069.136841,-234.835632,4.239500,0,0,255
1068.796387,-234.605530,4.239600,0,0,255
1068.455933,-234.375443,4.239700,0,0,255
1068.087402,-234.122330,4.239800,0,0,255
1067.736450,-233.938248,4.239900,0,0,255
1067.385376,-233.754181,4.240000,0,0,255
1067.034424,-233.570099,4.240100,0,0,255
1066.486938,-233.270981,4.240200,0,0,255
1066.135986,-233.086899,4.240300,0,0,255
1065.784912,-232.902832,4.240400,0,0,255
1065.433960,-232.718750,4.240500,0,0,255
1064.868896,-232.419632,4.240600,0,0,255
1064.514404,-232.258545,4.240700,0,0,255
1064.159912,-232.097488,4.240800,0,0,255
1063.805298,-231.936432,4.240900,0,0,255
1063.422729,-231.729340,4.241000,0,0,255
1063.078857,-231.522247,4.241100,0,0,255
1062.734863,-231.315170,4.241200,0,0,255
1062.390991,-231.108078,4.241300,0,0,255
1062.001465,-230.877975,4.241400,0,0,255
1061.667969,-230.624878,4.241500,0,0,255
1061.334473,-230.371780,4.241600,0,0,255
1061.001099,-230.118668,4.241700,0,0,255
1060.625488,-229.842545,4.241800,0,0,255
1060.281616,-229.635468,4.241900,0,0,255
1059.769165,-229.313324,4.242000,0,0,255
1059.484863,-229.267319,4.242100,0,0,255
1059.256714,-229.405380,4.242200,0,0,255
1056.617310,-232.879822,4.242300,0,0,255
1066.027100,-257.615112,4.242400,0,0,255
1064.187988,-255.981430,4.242500,0,0,255
1070.961792,-236.124161,4.242600,0,0,255
1070.666992,-236.492310,4.242700,0,0,255
1070.372192,-236.860458,4.242800,0,0,255
1070.077393,-237.228638,4.242900,0,0,255
1069.782593,-237.596786,4.243000,0,0,255
1069.487671,-237.964935,4.243100,0,0,255
1069.192871,-238.333084,4.243200,0,0,255
1068.898071,-238.701233,4.243300,0,0,255
1068.603271,-239.069397,4.243400,0,0,255
1068.308472,-239.437546,4.243500,0,0,255
1068.013672,-239.805695,4.243600,0,0,255
1067.718750,-240.173843,4.243700,0,0,255
1067.423950,-240.542007,4.243800,0,0,255
1067.129150,-240.910156,4.243900,0,0,255
1066.834351,-241.278305,4.244000,0,0,255
1066.304443,-241.784515,4.244100,0,0,255
1065.451416,-242.819946,4.244200,0,0,255
1067.392334,-253.289291,4.244300,0,0,255
1067.455566,-253.611435,4.244400,0,0,255
1067.209839,-254.485794,4.244500,0,0,255
1067.023926,-255.153076,4.244600,0,0,255
1066.820312,-255.659286,4.244700,0,0,255
1066.616699,-256.165497,4.244800,0,0,255
1066.413086,-256.671722,4.244900,0,0,255
1066.027100,-257.615112,4.245000,0,0,255
1065.693604,-258.673523,4.245100,0,0,255
1065.514648,-259.018677,4.245200,0,0,255
1065.125122,-259.041687,4.245300,0,0,255
1060.744873,-227.909744,4.245400,0,0,255
1061.085327,-228.139832,4.245500,0,0,255
1061.425781,-228.369934,4.245600,0,0,255
1061.766235,-228.600037,4.245700,0,0,255
1062.106689,-228.830124,4.245800,0,0,255
1062.447144,-229.060226,4.245900,0,0,255
1062.787476,-229.290329,4.246000,0,0,255
1063.127930,-229.520416,4.246100,0,0,255
1063.468384,-229.750519,4.246200,0,0,255
1063.808838,-229.980621,4.246300,0,0,255
1064.149414,-230.210693,4.246400,0,0,255
1064.489868,-230.440796,4.246500,0,0,255
1064.830322,-230.670898,4.246600,0,0,255
1065.170776,-230.900986,4.246700,0,0,255
1065.697144,-231.177094,4.246800,0,0,255
1066.044678,-231.384186,4.246900,0,0,255
1066.392090,-231.591278,4.247000,0,0,255
1066.739624,-231.798370,4.247100,0,0,255
1067.087036,-232.005447,4.247200,0,0,255
1067.434448,-232.212540,4.247300,0,0,255
1067.781982,-232.419632,4.247400,0,0,255
1068.143433,-232.603699,4.247500,0,0,255
1068.483887,-232.833786,4.247600,0,0,255
1068.824341,-233.063889,4.247700,0,0,255
1069.164795,-233.293991,4.247800,0,0,255
1069.505371,-233.524078,4.247900,0,0,255
1069.845825,-233.754181,4.248000,0,0,255
1070.298462,-234.007278,4.248100,0,0,255
1070.638916,-234.237381,4.248200,0,0,255
1070.979370,-234.467484,4.248300,0,0,255
1071.319824,-234.697571,4.248400,0,0,255
1071.660400,-234.927658,4.248500,0,0,255
1072.000732,-235.157761,4.248600,0,0,255
1072.341187,-235.387848,4.248700,0,0,255
1072.681641,-235.617950,4.248800,0,0,255
1073.022095,-235.848053,4.248900,0,0,255
1073.362549,-236.078140,4.249000,0,0,255
1073.748657,-236.331253,4.249100,0,0,255
1074.096069,-236.515335,4.249200,0,0,255
1074.699829,-236.860458,4.249300,0,0,255
1075.043701,-236.975510,4.249400,0,0,255
1075.320923,-236.975510,4.249500,0,0,255
1075.510498,-236.860458,4.249600,0,0,255
1066.486938,-233.270981,4.249700,0,0,255
1062.482178,-239.161438,4.249800,0,0,255
1064.468750,-224.366272,4.249900,0,0,255
1064.809204,-224.596375,4.250000,0,0,255
1065.149658,-224.826462,4.250100,0,0,255
1065.490112,-225.056564,4.250200,0,0,255
1065.830444,-225.286667,4.250300,0,0,255
1066.170898,-225.516754,4.250400,0,0,255
1066.511475,-225.746857,4.250500,0,0,255
1066.851929,-225.976959,4.250600,0,0,255
1067.192383,-226.207031,4.250700,0,0,255
1067.532837,-226.437134,4.250800,0,0,255
1067.873291,-226.667236,4.250900,0,0,255
1068.389160,-226.989365,4.251000,0,0,255
1077.230347,-232.833786,4.251100,0,0,255
1052.531982,-243.073059,4.251200,0,0,255
1056.203125,-238.747253,4.251300,0,0,255
1053.149658,-237.389694,4.251400,0,0,255
1052.854858,-237.757843,4.251500,0,0,255
1052.560059,-238.125992,4.251600,0,0,255
1052.265259,-238.494156,4.251700,0,0,255
1051.970459,-238.862305,4.251800,0,0,255
1051.675537,-239.230453,4.251900,0,0,255
1051.380737,-239.598602,4.252000,0,0,255
1051.085938,-239.966766,4.252100,0,0,255
1050.791138,-240.334915,4.252200,0,0,255
1050.496338,-240.703064,4.252300,0,0,255
1050.124268,-241.094223,4.252400,0,0,255
1050.197998,-241.531418,4.252500,0,0,255
1050.538452,-241.761505,4.252600,0,0,255
1050.878906,-241.991608,4.252700,0,0,255
1051.261475,-242.267715,4.252800,0,0,255
1051.605347,-242.474808,4.252900,0,0,255
1051.949341,-242.681900,4.253000,0,0,255
1052.531982,-243.073059,4.253100,0,0,255
1052.872437,-243.303146,4.253200,0,0,255
1053.212769,-243.533249,4.253300,0,0,255
1053.756836,-243.901398,4.253400,0,0,255
1054.097290,-244.131500,4.253500,0,0,255
1054.437744,-244.361603,4.253600,0,0,255
1054.778198,-244.591675,4.253700,0,0,255
1055.160889,-244.844803,4.253800,0,0,255
1055.508301,-245.051880,4.253900,0,0,255
1055.855713,-245.258957,4.254000,0,0,255
1056.480469,-245.627121,4.254100,0,0,255
1056.820923,-245.857208,4.254200,0,0,255
1057.161377,-246.087311,4.254300,0,0,255
1057.501831,-246.317413,4.254400,0,0,255
1057.940552,-246.593521,4.254500,0,0,255
1058.284546,-246.800613,4.254600,0,0,255
1058.628540,-247.007690,4.254700,0,0,255
1058.972412,-247.214767,4.254800,0,0,255
1059.397095,-247.513901,4.254900,0,0,255
1059.737549,-247.743988,4.255000,0,0,255
1060.078003,-247.974091,4.255100,0,0,255
1060.418457,-248.204178,4.255200,0,0,255
1060.783447,-248.434280,4.255300,0,0,255
1061.123901,-248.664383,4.255400,0,0,255
1061.464355,-248.894470,4.255500,0,0,255
1061.804810,-249.124573,4.255600,0,0,255
1062.243530,-249.446716,4.255700,0,0,255
1062.576904,-249.699814,4.255800,0,0,255
1062.910400,-249.952911,4.255900,0,0,255
1063.243774,-250.206024,4.256000,0,0,255
1063.773804,-250.620193,4.256100,0,0,255
1064.110840,-250.850281,4.256200,0,0,255
1064.447754,-251.080383,4.256300,0,0,255
1064.784668,-251.310471,4.256400,0,0,255
1065.363647,-251.747665,4.256500,0,0,255
1065.876221,-252.322891,4.256600,0,0,255
1066.216675,-252.552994,4.256700,0,0,255
1066.802734,-252.944153,4.256800,0,0,255
1067.392334,-253.289291,4.256900,0,0,255
1056.480469,-245.627121,4.257000,0,0,255
1056.775269,-245.258957,4.257100,0,0,255
1057.070190,-244.890808,4.257200,0,0,255
1057.364990,-244.522659,4.257300,0,0,255
1057.659790,-244.154510,4.257400,0,0,255
1057.954590,-243.786346,4.257500,0,0,255
1058.249390,-243.418198,4.257600,0,0,255
1058.544312,-243.050049,4.257700,0,0,255
1058.839111,-242.681900,4.257800,0,0,255
1059.176025,-242.336746,4.257900,0,0,255
1059.484863,-242.014618,4.258000,0,0,255
1059.793701,-241.692474,4.258100,0,0,255
1060.239502,-241.186264,4.258200,0,0,255
1061.180054,-239.828705,4.258300,0,0,255
1063.191162,-225.493759,4.258400,0,0,255
1063.531616,-225.723831,4.258500,0,0,255
1063.872070,-225.953934,4.258600,0,0,255
1064.212524,-226.184021,4.258700,0,0,255
1064.552979,-226.414124,4.258800,0,0,255
1064.893433,-226.644226,4.258900,0,0,255
1065.233887,-226.874313,4.259000,0,0,255
1065.574341,-227.104416,4.259100,0,0,255
1065.914673,-227.334518,4.259200,0,0,255
1066.255127,-227.564606,4.259300,0,0,255
1066.595703,-227.794708,4.259400,0,0,255
1066.936157,-228.024796,4.259500,0,0,255
1067.515259,-228.369934,4.259600,0,0,255
1067.855591,-228.600037,4.259700,0,0,255
1068.196045,-228.830124,4.259800,0,0,255
1068.536621,-229.060226,4.259900,0,0,255
1068.877075,-229.290329,4.260000,0,0,255
1069.217529,-229.520416,4.260100,0,0,255
1069.557983,-229.750519,4.260200,0,0,255
1069.898438,-229.980621,4.260300,0,0,255
1070.238892,-230.210693,4.260400,0,0,255
1070.579346,-230.440796,4.260500,0,0,255
1070.919678,-230.670898,4.260600,0,0,255
1071.260132,-230.900986,4.260700,0,0,255
1071.600586,-231.131088,4.260800,0,0,255
1072.158691,-231.499237,4.260900,0,0,255
1076.661743,-234.490494,4.261000,0,0,255
1072.334229,-237.021545,4.261100,0,0,255
1072.056885,-237.412704,4.261200,0,0,255
1071.779541,-237.803864,4.261300,0,0,255
1071.502319,-238.195038,4.261400,0,0,255
1071.225098,-238.586197,4.261500,0,0,255
1070.947876,-238.977356,4.261600,0,0,255
1070.670532,-239.368515,4.261700,0,0,255
1070.393311,-239.759674,4.261800,0,0,255
1069.943970,-240.403946,4.261900,0,0,255
1066.995850,-243.671310,4.262000,0,0,255
1063.422729,-231.729340,4.262100,0,0,255
1063.156128,-232.143524,4.262200,0,0,255
1062.889404,-232.557678,4.262300,0,0,255
1062.622559,-232.971848,4.262400,0,0,255
1062.355835,-233.386032,4.262500,0,0,255
1062.089111,-233.800201,4.262600,0,0,255
1061.822266,-234.214371,4.262700,0,0,255
1061.555664,-234.628540,4.262800,0,0,255
1061.288940,-235.042709,4.262900,0,0,255
1061.022095,-235.456894,4.263000,0,0,255
1060.593872,-236.078140,4.263100,0,0,255
1060.495728,-236.469299,4.263200,0,0,255
1057.940552,-246.593521,4.263300,0,0,255
1062.380493,-241.255295,4.263400,0,0,255
1059.411133,-238.724243,4.263500,0,0,255
1059.786621,-238.977356,4.263600,0,0,255
1060.130615,-239.184448,4.263700,0,0,255
1060.474609,-239.391510,4.263800,0,0,255
1060.818604,-239.598602,4.263900,0,0,255
1061.180054,-239.828705,4.264000,0,0,255
1061.510010,-240.104813,4.264100,0,0,255
1061.839966,-240.380936,4.264200,0,0,255
1062.401489,-240.818115,4.264300,0,0,255
1062.380493,-241.255295,4.264400,0,0,255
1062.668213,-241.623459,4.264500,0,0,255
1063.075317,-242.175674,4.264600,0,0,255
1063.549194,-242.474808,4.264700,0,0,255
1063.910645,-242.589859,4.264800,0,0,255
1064.272217,-242.704910,4.264900,0,0,255
1064.760010,-242.888977,4.265000,0,0,255
1065.451416,-242.819946,4.265100,0,0,255
1065.798950,-243.004013,4.265200,0,0,255
1066.146484,-243.188110,4.265300,0,0,255
1066.493896,-243.372177,4.265400,0,0,255
1066.995850,-243.671310,4.265500,0,0,255
1067.329224,-243.924408,4.265600,0,0,255
1067.662720,-244.177505,4.265700,0,0,255
1067.996094,-244.430618,4.265800,0,0,255
1068.512085,-244.821777,4.265900,0,0,255
1068.848999,-245.074875,4.266000,0,0,255
1069.301758,-245.397018,4.266100,0,0,255
1069.747437,-245.857208,4.266200,0,0,255
1070.080933,-246.110321,4.266300,0,0,255
1070.414307,-246.363419,4.266400,0,0,255
1070.937256,-246.754578,4.266500,0,0,255
1071.744629,-247.352829,4.266600,0,0,255
847.834290,-654.944275,4.266700,0,0,255
847.641235,-654.438110,4.266800,0,0,255
847.381470,-653.747742,4.266900,0,0,255
847.735962,-653.586731,4.267000,0,0,255
848.090454,-653.425659,4.267100,0,0,255
848.445007,-653.264587,4.267200,0,0,255
848.799500,-653.103516,4.267300,0,0,255
849.153931,-652.942444,4.267400,0,0,255
849.508423,-652.781372,4.267500,0,0,255
849.862915,-652.620361,4.267600,0,0,255
850.217407,-652.459290,4.267700,0,0,255
850.571899,-652.298218,4.267800,0,0,255
851.035217,-652.160156,4.267900,0,0,255
852.102173,-651.768921,4.268000,0,0,255
435.887268,-493.900330,4.268100,0,0,255
435.925842,-492.841919,4.268200,0,0,255
429.345032,-496.799530,4.268300,0,0,255
428.902802,-497.075653,4.268400,0,0,255
428.541260,-497.190674,4.268500,0,0,255
428.106049,-497.305756,4.268600,0,0,255
427.741028,-497.374756,4.268700,0,0,255
427.376038,-497.443817,4.268800,0,0,255
426.867126,-497.512848,4.268900,0,0,255
425.929993,-497.558838,4.269000,0,0,255
434.858887,-496.293335,4.269100,0,0,255
434.493896,-496.385345,4.269200,0,0,255
434.128845,-496.477417,4.269300,0,0,255
433.763824,-496.569427,4.269400,0,0,255
433.051361,-496.707520,4.269500,0,0,255
432.682831,-496.914581,4.269600,0,0,255
513.576355,-563.941406,4.269700,0,0,255
513.706238,-566.150391,4.269800,0,0,255
441.615234,-732.555542,4.269900,0,0,255
441.260742,-732.394470,4.270000,0,0,255
440.716736,-732.141357,4.270100,0,0,255
440.362244,-731.980286,4.270200,0,0,255
439.755035,-731.704224,4.270300,0,0,255
439.993713,-731.244019,4.270400,0,0,255
440.232391,-730.783813,4.270500,0,0,255
440.471039,-730.323608,4.270600,0,0,255
440.709717,-729.863464,4.270700,0,0,255
441.022095,-729.242188,4.270800,0,0,255
441.313385,-729.173096,4.270900,0,0,255
441.499420,-729.127136,4.271000,0,0,255
442.152222,-729.426208,4.271100,0,0,255
443.120941,-729.863464,4.271200,0,0,255
439.986664,-729.449280,4.271300,0,0,255
437.263092,-728.252747,4.271400,0,0,255
443.664948,-728.897034,4.271500,0,0,255
443.415771,-729.334229,4.271600,0,0,255
443.120941,-729.863464,4.271700,0,0,255
442.871735,-730.300598,4.271800,0,0,255
442.622528,-730.737793,4.271900,0,0,255
442.373352,-731.174988,4.272000,0,0,255
442.124146,-731.612122,4.272100,0,0,255
441.874939,-732.049377,4.272200,0,0,255
441.615234,-732.555542,4.272300,0,0,255
440.934326,-733.775085,4.272400,0,0,255
445.949829,-731.105896,4.272500,0,0,255
445.591827,-730.967896,4.272600,0,0,255
445.233826,-730.829834,4.272700,0,0,255
444.640686,-730.576721,4.272800,0,0,255
443.735138,-730.185547,4.272900,0,0,255
447.315125,-703.931641,4.273000,0,0,255
447.862640,-702.505066,4.273100,0,0,255
439.270691,-730.093506,4.273200,0,0,255
439.024994,-730.530701,4.273300,0,0,255
438.779327,-730.967896,4.273400,0,0,255
438.533661,-731.405029,4.273500,0,0,255
438.287933,-731.842285,4.273600,0,0,255
438.042267,-732.279419,4.273700,0,0,255
437.796600,-732.716614,4.273800,0,0,255
437.410492,-733.452881,4.273900,0,0,255
440.330658,-734.902527,4.274000,0,0,255
434.985229,-706.853821,4.274100,0,0,255
434.627228,-706.715820,4.274200,0,0,255
434.139374,-706.531677,4.274300,0,0,255
434.704468,-705.220154,4.274400,0,0,255
437.687775,-727.539429,4.274500,0,0,255
440.127075,-728.735962,4.274600,0,0,255
440.716736,-732.141357,4.274700,0,0,255
442.152222,-729.426208,4.274800,0,0,255
442.955963,-713.503601,4.274900,0,0,255
442.601471,-713.342590,4.275000,0,0,255
442.155731,-713.135498,4.275100,0,0,255
441.892487,-713.549683,4.275200,0,0,255
441.629272,-713.963806,4.275300,0,0,255
441.366028,-714.377991,4.275400,0,0,255
441.053680,-714.907227,4.275500,0,0,255
441.787201,-715.344360,4.275600,0,0,255
436.845428,-710.052185,4.275700,0,0,255
436.617279,-710.512390,4.275800,0,0,255
434.950134,-713.779724,4.275900,0,0,255
445.588318,-732.095337,4.276000,0,0,255
445.237305,-731.911255,4.276100,0,0,255
444.886353,-731.727173,4.276200,0,0,255
444.535370,-731.543152,4.276300,0,0,255
444.180878,-731.359009,4.276400,0,0,255
443.471893,-731.013916,4.276500,0,0,255
434.104309,-708.832642,4.276600,0,0,255
434.321869,-708.349487,4.276700,0,0,255
434.539490,-707.866272,4.276800,0,0,255
434.757111,-707.383118,4.276900,0,0,255
434.985229,-706.853821,4.277000,0,0,255
435.638062,-705.473267,4.277100,0,0,255
448.164490,-704.322815,4.277200,0,0,255
448.708496,-702.804199,4.277300,0,0,255
479.419128,-137.781281,4.277400,0,0,255
480.008759,-137.758270,4.277500,0,0,255
480.605438,-138.080414,4.277600,0,0,255
480.826538,-138.563614,4.277700,0,0,255
481.047638,-139.046814,4.277800,0,0,255
481.268799,-139.530014,4.277900,0,0,255
481.644348,-140.335342,4.278000,0,0,255
481.921570,-140.726517,4.278100,0,0,255
482.198853,-141.117676,4.278200,0,0,255
482.476166,-141.508835,4.278300,0,0,255
482.753448,-141.899994,4.278400,0,0,255
483.030670,-142.291168,4.278500,0,0,255
483.307983,-142.682327,4.278600,0,0,255
483.743195,-143.303574,4.278700,0,0,255
483.981873,-143.763779,4.278800,0,0,255
484.259094,-144.292984,4.278900,0,0,255
484.483734,-144.776184,4.279000,0,0,255
484.708374,-145.259384,4.279100,0,0,255
484.932983,-145.742584,4.279200,0,0,255
485.157623,-146.225784,4.279300,0,0,255
485.568298,-147.054138,4.279400,0,0,255
485.778870,-147.537338,4.279500,0,0,255
486.031555,-148.135590,4.279600,0,0,255
486.347473,-148.710831,4.279700,0,0,255
486.814270,-148.986938,4.279800,0,0,255
487.182770,-149.009949,4.279900,0,0,255
487.898773,-149.055954,4.280000,0,0,255
488.267273,-149.032959,4.280100,0,0,255
488.871002,-148.986938,4.280200,0,0,255
489.236023,-148.894897,4.280300,0,0,255
489.601013,-148.802856,4.280400,0,0,255
489.976562,-148.733841,4.280500,0,0,255
490.334534,-148.595779,4.280600,0,0,255
490.692566,-148.457733,4.280700,0,0,255
491.106720,-148.296646,4.280800,0,0,255
491.741974,-147.790436,4.280900,0,0,255
492.061401,-147.491318,4.281000,0,0,255
492.454498,-147.123154,4.281100,0,0,255
492.794891,-146.893082,4.281200,0,0,255
493.230103,-146.616943,4.281300,0,0,255
493.595123,-146.524918,4.281400,0,0,255
494.181274,-146.363846,4.281500,0,0,255
494.549805,-146.340836,4.281600,0,0,255
494.963959,-146.294830,4.281700,0,0,255
495.332520,-146.317825,4.281800,0,0,255
495.701019,-146.340836,4.281900,0,0,255
496.069580,-146.363846,4.282000,0,0,255
496.438049,-146.386856,4.282100,0,0,255
496.806610,-146.409866,4.282200,0,0,255
497.175110,-146.432877,4.282300,0,0,255
497.543671,-146.455887,4.282400,0,0,255
497.912170,-146.478897,4.282500,0,0,255
498.445648,-146.478897,4.282600,0,0,255
498.814209,-146.478897,4.282700,0,0,255
499.182709,-146.478897,4.282800,0,0,255
499.551270,-146.478897,4.282900,0,0,255
500.039124,-146.455887,4.283000,0,0,255
500.407623,-146.409866,4.283100,0,0,255
500.776184,-146.363846,4.283200,0,0,255
501.249969,-146.294830,4.283300,0,0,255
501.618530,-146.317825,4.283400,0,0,255
502.285370,-146.386856,4.283500,0,0,255
502.920624,-146.731995,4.283600,0,0,255
503.440063,-147.353256,4.283700,0,0,255
503.685791,-147.813446,4.283800,0,0,255
503.931488,-148.273636,4.283900,0,0,255
504.177124,-148.733841,4.284000,0,0,255
504.422852,-149.194031,4.284100,0,0,255
504.882599,-149.999359,4.284200,0,0,255
505.114288,-150.459549,4.284300,0,0,255
505.345917,-150.919739,4.284400,0,0,255
505.577545,-151.379944,4.284500,0,0,255
505.809174,-151.840118,4.284600,0,0,255
506.040863,-152.300308,4.284700,0,0,255
506.272491,-152.760513,4.284800,0,0,255
506.504120,-153.220703,4.284900,0,0,255
506.886688,-154.026047,4.285000,0,0,255
507.153442,-154.440201,4.285100,0,0,255
507.420227,-154.854370,4.285200,0,0,255
507.686920,-155.268555,4.285300,0,0,255
507.953674,-155.682724,4.285400,0,0,255
508.301117,-156.234955,4.285500,0,0,255
508.539795,-156.695145,4.285600,0,0,255
508.778442,-157.155334,4.285700,0,0,255
509.017120,-157.615524,4.285800,0,0,255
509.255798,-158.075714,4.285900,0,0,255
509.494446,-158.535904,4.286000,0,0,255
509.733124,-158.996109,4.286100,0,0,255
509.971802,-159.456284,4.286200,0,0,255
510.210449,-159.916473,4.286300,0,0,255
510.449127,-160.376678,4.286400,0,0,255
510.687805,-160.836868,4.286500,0,0,255
510.926453,-161.297058,4.286600,0,0,255
511.165131,-161.757233,4.286700,0,0,255
511.403778,-162.217438,4.286800,0,0,255
511.642456,-162.677628,4.286900,0,0,255
511.881134,-163.137817,4.287000,0,0,255
512.119812,-163.598022,4.287100,0,0,255
512.358459,-164.058212,4.287200,0,0,255
512.779663,-164.794510,4.287300,0,0,255
513.172729,-165.622849,4.287400,0,0,255
513.309631,-166.175079,4.287500,0,0,255
513.453552,-166.773331,4.287600,0,0,255
513.569336,-167.348572,4.287700,0,0,255
513.727295,-168.107895,4.287800,0,0,255
514.053650,-169.097290,4.287900,0,0,255
514.295898,-169.557495,4.288000,0,0,255
514.538025,-170.017685,4.288100,0,0,255
514.780212,-170.477875,4.288200,0,0,255
515.022400,-170.938065,4.288300,0,0,255
515.264587,-171.398254,4.288400,0,0,255
515.506714,-171.858444,4.288500,0,0,255
515.748962,-172.318634,4.288600,0,0,255
515.991089,-172.778839,4.288700,0,0,255
516.233276,-173.239014,4.288800,0,0,255
516.622864,-173.929306,4.288900,0,0,255
516.931702,-174.642609,4.289000,0,0,255
517.121277,-175.447937,4.289100,0,0,255
517.240540,-176.414352,4.289200,0,0,255
517.251099,-177.012589,4.289300,0,0,255
517.261597,-177.771912,4.289400,0,0,255
517.254639,-178.370163,4.289500,0,0,255
517.247620,-178.968399,4.289600,0,0,255
517.233521,-180.164902,4.289700,0,0,255
517.373962,-180.671112,4.289800,0,0,255
517.728394,-181.177322,4.289900,0,0,255
518.332092,-181.683533,4.290000,0,0,255
518.672546,-181.913620,4.290100,0,0,255
519.013000,-182.143723,4.290200,0,0,255
519.606201,-182.534882,4.290300,0,0,255
519.960632,-182.695953,4.290400,0,0,255
520.315125,-182.857025,4.290500,0,0,255
520.669617,-183.018082,4.290600,0,0,255
521.024109,-183.179153,4.290700,0,0,255
521.378662,-183.340225,4.290800,0,0,255
521.905029,-183.593323,4.290900,0,0,255
522.259521,-183.754379,4.291000,0,0,255
522.614075,-183.915466,4.291100,0,0,255
523.010681,-184.099533,4.291200,0,0,255
523.361694,-184.283615,4.291300,0,0,255
523.754700,-184.490692,4.291400,0,0,255
524.095154,-184.720795,4.291500,0,0,255
524.435608,-184.950882,4.291600,0,0,255
525.109497,-185.388077,4.291700,0,0,255
525.467468,-185.526123,4.291800,0,0,255
526.032593,-185.733215,4.291900,0,0,255
526.713440,-185.825241,4.292000,0,0,255
527.082031,-185.825241,4.292100,0,0,255
527.496216,-185.802246,4.292200,0,0,255
527.861206,-185.733215,4.292300,0,0,255
528.233215,-185.664185,4.292400,0,0,255
528.717529,-185.756226,4.292500,0,0,255
529.110657,-185.986328,4.292600,0,0,255
529.366882,-186.423492,4.292700,0,0,255
529.623047,-186.860687,4.292800,0,0,255
529.879272,-187.297867,4.292900,0,0,255
530.135559,-187.735046,4.293000,0,0,255
530.391724,-188.172226,4.293100,0,0,255
530.718140,-188.701447,4.293200,0,0,255
530.939270,-189.184647,4.293300,0,0,255
531.314819,-190.012985,4.293400,0,0,255
531.381531,-190.772308,4.293500,0,0,255
531.335876,-191.370560,4.293600,0,0,255
531.276245,-192.198898,4.293700,0,0,255
531.395508,-192.705109,4.293800,0,0,255
531.665771,-193.119293,4.293900,0,0,255
531.964111,-193.556458,4.294000,0,0,255
532.841553,-194.407822,4.294100,0,0,255
443.198151,-274.458099,4.294200,0,0,255
443.419250,-275.079346,4.294300,0,0,255
443.959747,-275.723633,4.294400,0,0,255
445.381226,-276.874115,4.294500,0,0,255
446.420105,-703.448425,4.294600,0,0,255
446.869385,-703.701538,4.294700,0,0,255
447.315125,-703.931641,4.294800,0,0,255
447.669617,-704.092712,4.294900,0,0,255
448.164490,-704.322815,4.295000,0,0,255
450.505524,-705.013062,4.295100,0,0,255
459.964355,-493.486145,4.295200,0,0,255
459.294006,-493.164032,4.295300,0,0,255
458.960571,-492.680817,4.295400,0,0,255
458.690338,-491.967529,4.295500,0,0,255
458.609619,-491.369263,4.295600,0,0,255
458.528870,-490.771027,4.295700,0,0,255
458.395508,-489.827637,4.295800,0,0,255
458.205994,-488.884247,4.295900,0,0,255
458.135773,-488.286011,4.296000,0,0,255
458.055054,-487.595703,4.296100,0,0,255
457.970825,-486.997437,4.296200,0,0,255
457.886597,-486.399200,4.296300,0,0,255
457.802368,-485.800964,4.296400,0,0,255
457.718140,-485.202728,4.296500,0,0,255
457.633911,-484.604462,4.296600,0,0,255
457.493500,-483.707092,4.296700,0,0,255
457.416290,-483.108826,4.296800,0,0,255
457.339081,-482.510590,4.296900,0,0,255
457.261841,-481.912323,4.297000,0,0,255
457.184631,-481.314087,4.297100,0,0,255
457.086365,-480.531769,4.297200,0,0,255
457.131989,-479.381287,4.297300,0,0,255
457.065308,-478.299835,4.297400,0,0,255
456.788025,-477.425476,4.297500,0,0,255
456.587952,-476.735199,4.297600,0,0,255
456.373871,-476.505096,4.297700,0,0,255
456.012360,-476.274994,4.297800,0,0,255
455.647339,-476.205994,4.297900,0,0,255
455.282349,-476.136932,4.298000,0,0,255
454.843597,-476.021912,4.298100,0,0,255
454.482117,-475.906860,4.298200,0,0,255
454.120575,-475.791809,4.298300,0,0,255
453.411621,-475.538696,4.298400,0,0,255
452.906189,-475.285583,4.298500,0,0,255
452.277954,-474.802399,4.298600,0,0,255
451.933990,-474.595306,4.298700,0,0,255
451.590027,-474.388214,4.298800,0,0,255
451.246094,-474.181122,4.298900,0,0,255
450.744171,-473.881989,4.299000,0,0,255
450.396698,-473.743958,4.299100,0,0,255
457.468933,-466.910095,4.299200,0,0,255
457.419769,-466.311859,4.299300,0,0,255
457.370667,-465.713593,4.299400,0,0,255
457.279388,-464.632172,4.299500,0,0,255
457.223267,-464.033905,4.299600,0,0,255
457.167084,-463.435669,4.299700,0,0,255
457.100403,-462.699371,4.299800,0,0,255
457.002136,-462.124146,4.299900,0,0,255
456.903839,-461.548889,4.300000,0,0,255
456.805573,-460.973633,4.300100,0,0,255
456.707306,-460.398376,4.300200,0,0,255
456.609009,-459.823151,4.300300,0,0,255
456.510742,-459.247925,4.300400,0,0,255
456.412476,-458.672668,4.300500,0,0,255
456.314209,-458.097443,4.300600,0,0,255
456.215942,-457.522217,4.300700,0,0,255
456.117676,-456.946960,4.300800,0,0,255
456.005341,-456.095612,4.300900,0,0,255
455.882507,-455.520355,4.301000,0,0,255
455.759674,-454.945129,4.301100,0,0,255
455.636810,-454.369873,4.301200,0,0,255
455.513977,-453.794647,4.301300,0,0,255
455.391144,-453.219421,4.301400,0,0,255
455.187592,-452.299042,4.301500,0,0,255
455.075256,-451.723816,4.301600,0,0,255
454.962921,-451.148560,4.301700,0,0,255
454.850647,-450.573334,4.301800,0,0,255
454.738312,-449.998077,4.301900,0,0,255
454.625977,-449.422852,4.302000,0,0,255
454.513702,-448.847595,4.302100,0,0,255
454.401367,-448.272339,4.302200,0,0,255
454.289062,-447.697113,4.302300,0,0,255
454.176758,-447.121857,4.302400,0,0,255
454.064423,-446.546631,4.302500,0,0,255
453.952118,-445.971405,4.302600,0,0,255
453.839813,-445.396149,4.302700,0,0,255
453.660828,-444.406738,4.302800,0,0,255
453.566040,-443.831512,4.302900,0,0,255
453.471283,-443.256287,4.303000,0,0,255
453.376526,-442.681030,4.303100,0,0,255
453.201019,-441.599609,4.303200,0,0,255
453.204559,-441.001343,4.303300,0,0,255
453.208038,-439.896881,4.303400,0,0,255
453.387054,-438.792419,4.303500,0,0,255
453.523926,-438.240204,4.303600,0,0,255
453.660828,-437.687988,4.303700,0,0,255
453.881927,-436.790588,4.303800,0,0,255
454.036346,-436.238373,4.303900,0,0,255
454.190796,-435.686127,4.304000,0,0,255
454.345215,-435.133911,4.304100,0,0,255
454.499634,-434.581665,4.304200,0,0,255
454.657593,-434.006409,4.304300,0,0,255
454.819061,-433.454193,4.304400,0,0,255
454.980499,-432.901978,4.304500,0,0,255
455.141937,-432.349731,4.304600,0,0,255
455.422729,-431.406372,4.304700,0,0,255
455.573639,-430.854126,4.304800,0,0,255
455.724548,-430.301880,4.304900,0,0,255
455.886017,-429.703613,4.305000,0,0,255
455.942169,-428.760254,4.305100,0,0,255
456.177307,-428.553162,4.305200,0,0,255
457.293427,-470.039398,4.305300,0,0,255
457.286438,-468.911957,4.305400,0,0,255
457.240784,-468.313690,4.305500,0,0,255
457.195160,-467.692444,4.305600,0,0,255
457.468933,-466.910095,4.305700,0,0,255
635.706360,-288.102783,4.305800,0,0,255
635.481689,-287.826660,4.305900,0,0,255
635.113220,-287.872681,4.306000,0,0,255
634.499023,-287.941681,4.306100,0,0,255
633.832092,-288.470947,4.306200,0,0,255
640.167297,-284.030060,4.306300,0,0,255
640.535828,-284.191162,4.306400,0,0,255
641.044739,-284.306183,4.306500,0,0,255
641.406250,-284.260162,4.306600,0,0,255
641.732666,-283.984070,4.306700,0,0,255
642.059021,-283.707947,4.306800,0,0,255
642.490784,-283.339783,4.306900,0,0,255
642.582031,-282.994659,4.307000,0,0,255
642.480225,-282.603485,4.307100,0,0,255
642.252075,-282.258331,4.307200,0,0,255
491.443634,-475.400635,4.307300,0,0,255
491.190948,-475.331604,4.307400,0,0,255
490.776794,-475.331604,4.307500,0,0,255
490.313477,-475.469666,4.307600,0,0,255
489.990570,-475.515686,4.307700,0,0,255
489.657166,-475.377625,4.307800,0,0,255
489.109680,-474.986481,4.307900,0,0,255
488.667419,-474.549286,4.308000,0,0,255
488.137451,-474.135101,4.308100,0,0,255
487.667145,-473.928009,4.308200,0,0,255
486.972198,-473.812988,4.308300,0,0,255
486.452759,-473.720917,4.308400,0,0,255
485.947327,-473.467834,4.308500,0,0,255
485.540192,-473.352783,4.308600,0,0,255
484.929474,-473.329773,4.308700,0,0,255
484.315277,-473.237732,4.308800,0,0,255
483.971313,-473.099670,4.308900,0,0,255
483.683502,-472.777557,4.309000,0,0,255
483.430817,-472.708496,4.309100,0,0,255
483.062256,-472.708496,4.309200,0,0,255
482.693756,-472.708496,4.309300,0,0,255
481.998840,-472.685516,4.309400,0,0,255
481.356537,-472.386383,4.309500,0,0,255
480.882690,-472.340363,4.309600,0,0,255
480.517670,-472.409393,4.309700,0,0,255
480.152649,-472.478424,4.309800,0,0,255
479.787659,-472.547455,4.309900,0,0,255
479.422638,-472.616486,4.310000,0,0,255
479.057617,-472.685516,4.310100,0,0,255
478.692596,-472.754517,4.310200,0,0,255
478.327576,-472.823578,4.310300,0,0,255
477.962555,-472.892609,4.310400,0,0,255
477.597534,-472.961609,4.310500,0,0,255
477.232544,-473.030670,4.310600,0,0,255
476.867523,-473.099670,4.310700,0,0,255
476.502472,-473.168701,4.310800,0,0,255
476.137482,-473.237732,4.310900,0,0,255
475.772461,-473.306763,4.311000,0,0,255
475.407440,-473.375793,4.311100,0,0,255
475.042419,-473.444824,4.311200,0,0,255
474.424683,-473.467834,4.311300,0,0,255
474.059692,-473.536865,4.311400,0,0,255
473.694672,-473.605896,4.311500,0,0,255
473.329651,-473.674927,4.311600,0,0,255
472.964630,-473.743958,4.311700,0,0,255
472.599609,-473.812988,4.311800,0,0,255
472.234589,-473.881989,4.311900,0,0,255
471.869568,-473.951019,4.312000,0,0,255
471.399292,-473.997070,4.312100,0,0,255
471.455414,-474.595306,4.312200,0,0,255
471.511566,-475.193573,4.312300,0,0,255
471.567749,-475.791809,4.312400,0,0,255
471.623901,-476.390076,4.312500,0,0,255
471.680054,-476.988312,4.312600,0,0,255
471.736206,-477.586548,4.312700,0,0,255
471.792358,-478.184784,4.312800,0,0,255
471.848511,-478.783020,4.312900,0,0,255
471.904663,-479.381287,4.313000,0,0,255
471.974854,-480.140594,4.313100,0,0,255
472.160889,-480.669830,4.313200,0,0,255
472.392548,-481.314087,4.313300,0,0,255
472.452179,-481.912323,4.313400,0,0,255
472.511871,-482.510590,4.313500,0,0,255
472.571533,-483.108826,4.313600,0,0,255
472.687378,-484.282318,4.313700,0,0,255
472.740021,-484.880585,4.313800,0,0,255
472.792664,-485.478821,4.313900,0,0,255
472.845306,-486.077087,4.314000,0,0,255
472.919006,-486.905426,4.314100,0,0,255
475.561859,-488.055908,4.314200,0,0,255
1005.392090,-298.572113,4.314300,0,0,255
1005.111206,-298.963287,4.314400,0,0,255
1004.830505,-299.354462,4.314500,0,0,255
1004.321594,-300.044739,4.314600,0,0,255
1004.030212,-300.412903,4.314700,0,0,255
1003.609070,-300.942108,4.314800,0,0,255
1003.352844,-301.379303,4.314900,0,0,255
1003.096619,-301.816467,4.315000,0,0,255
1002.756165,-302.046570,4.315100,0,0,255
1002.110352,-302.483765,4.315200,0,0,255
1001.773438,-302.713867,4.315300,0,0,255
1001.436523,-302.943939,4.315400,0,0,255
1000.846802,-303.381104,4.315500,0,0,255
1000.513428,-303.634216,4.315600,0,0,255
999.955322,-304.048401,4.315700,0,0,255
999.762390,-304.554596,4.315800,0,0,255
999.502625,-305.267914,4.315900,0,0,255
999.299011,-305.774109,4.316000,0,0,255
999.095520,-306.280334,4.316100,0,0,255
998.870911,-306.809540,4.316200,0,0,255
998.660339,-307.292725,4.316300,0,0,255
998.449646,-307.775940,4.316400,0,0,255
998.161926,-308.466217,4.316500,0,0,255
997.909119,-308.903412,4.316600,0,0,255
997.645935,-309.363617,4.316700,0,0,255
997.252808,-310.099915,4.316800,0,0,255
423.680206,-758.441345,4.316900,0,0,255
423.960999,-758.050110,4.317000,0,0,255
424.241791,-757.658997,4.317100,0,0,255
424.522552,-757.267822,4.317200,0,0,255
424.803345,-756.876709,4.317300,0,0,255
425.329834,-756.117310,4.317400,0,0,255
425.571991,-755.381042,4.317500,0,0,255
425.589539,-755.127930,4.317600,0,0,255
425.631653,-754.529724,4.317700,0,0,255
425.673767,-753.908447,4.317800,0,0,255
425.901917,-753.402222,4.317900,0,0,255
426.042297,-753.103088,4.318000,0,0,255
430.369873,-722.086243,4.318100,0,0,255
430.141724,-722.638428,4.318200,0,0,255
429.906586,-723.098633,4.318300,0,0,255
429.671417,-723.558838,4.318400,0,0,255
429.436279,-724.019043,4.318500,0,0,255
428.976501,-724.916382,4.318600,0,0,255
428.818573,-725.399536,4.318700,0,0,255
429.180054,-725.698730,4.318800,0,0,255
429.538055,-725.836731,4.318900,0,0,255
430.180359,-726.112854,4.319000,0,0,255
430.387421,-726.020813,4.319100,0,0,255
430.640106,-725.583679,4.319200,0,0,255
430.892822,-725.146423,4.319300,0,0,255
431.145538,-724.709290,4.319400,0,0,255
431.398224,-724.272095,4.319500,0,0,255
431.784332,-723.604858,4.319600,0,0,255
431.756226,-723.466736,4.319700,0,0,255
431.545654,-723.351746,4.319800,0,0,255
419.128052,-738.031799,4.319900,0,0,255
419.440399,-737.732727,4.320000,0,0,255
419.907227,-737.594666,4.320100,0,0,255
421.711243,-755.910278,4.320200,0,0,255
422.058716,-756.094360,4.320300,0,0,255
422.592194,-756.393433,4.320400,0,0,255
422.943176,-756.577515,4.320500,0,0,255
423.294159,-756.761597,4.320600,0,0,255
423.746918,-756.968689,4.320700,0,0,255
423.996094,-756.531494,4.320800,0,0,255
424.245300,-756.094360,4.320900,0,0,255
424.736694,-755.219971,4.321000,0,0,255
424.771759,-754.621704,4.321100,0,0,255
424.806854,-754.023499,4.321200,0,0,255
424.845490,-753.287170,4.321300,0,0,255
425.901917,-753.402222,4.321400,0,0,255
449.743896,-762.951172,4.321500,0,0,255
450.112396,-762.951172,4.321600,0,0,255
450.480927,-762.951172,4.321700,0,0,255
451.179413,-762.928223,4.321800,0,0,255
451.502289,-763.227295,4.321900,0,0,255
451.825195,-763.526428,4.322000,0,0,255
452.148071,-763.825562,4.322100,0,0,255
452.534180,-764.170654,4.322200,0,0,255
453.032562,-764.262695,4.322300,0,0,255
453.590607,-764.147705,4.322400,0,0,255
453.899475,-763.825562,4.322500,0,0,255
454.208344,-763.503418,4.322600,0,0,255
454.517212,-763.181274,4.322700,0,0,255
455.068237,-762.560059,4.322800,0,0,255
455.015564,-762.007812,4.322900,0,0,255
454.696198,-761.708679,4.323000,0,0,255
454.376801,-761.409485,4.323100,0,0,255
454.057404,-761.110413,4.323200,0,0,255
453.738007,-760.811279,4.323300,0,0,255
453.418640,-760.512146,4.323400,0,0,255
453.099243,-760.213074,4.323500,0,0,255
452.779846,-759.913940,4.323600,0,0,255
452.460449,-759.614807,4.323700,0,0,255
452.141083,-759.315674,4.323800,0,0,255
451.821655,-759.016602,4.323900,0,0,255
451.502289,-758.717407,4.324000,0,0,255
451.182892,-758.418274,4.324100,0,0,255
450.863525,-758.119141,4.324200,0,0,255
450.544098,-757.820068,4.324300,0,0,255
450.059753,-757.336792,4.324400,0,0,255
449.691223,-757.313843,4.324500,0,0,255
449.322723,-757.290833,4.324600,0,0,255
446.893921,-759.775879,4.324700,0,0,255
445.753265,-758.855530,4.324800,0,0,255
446.055115,-758.510315,4.324900,0,0,255
446.356934,-758.165161,4.325000,0,0,255
446.658783,-757.820068,4.325100,0,0,255
447.160706,-757.221802,4.325200,0,0,255
447.592407,-756.439453,4.325300,0,0,255
447.609924,-755.841248,4.325400,0,0,255
447.627502,-755.150879,4.325500,0,0,255
447.339691,-754.483704,4.325600,0,0,255
446.978180,-754.391602,4.325700,0,0,255
446.616669,-754.299561,4.325800,0,0,255
446.255157,-754.207520,4.325900,0,0,255
445.893646,-754.115540,4.326000,0,0,255
445.532135,-754.023499,4.326100,0,0,255
445.170654,-753.931396,4.326200,0,0,255
444.809143,-753.839355,4.326300,0,0,255
444.447601,-753.747375,4.326400,0,0,255
444.086121,-753.655334,4.326500,0,0,255
443.724609,-753.563293,4.326600,0,0,255
443.363098,-753.471191,4.326700,0,0,255
442.819092,-753.264160,4.326800,0,0,255
442.450562,-753.241150,4.326900,0,0,255
442.082031,-753.218079,4.327000,0,0,255
441.727539,-753.379211,4.327100,0,0,255
441.348511,-753.563293,4.327200,0,0,255
441.001038,-754.207520,4.327300,0,0,255
439.944550,-757.083801,4.327400,0,0,255
398.293945,-741.621338,4.327500,0,0,255
397.665680,-741.000061,4.327600,0,0,255
435.336243,-758.211182,4.327700,0,0,255
434.567596,-755.956299,4.327800,0,0,255
668.933472,-146.386856,4.327900,0,0,255
669.270447,-146.455887,4.328000,0,0,255
440.762360,-583.867676,4.328100,0,0,255
440.221863,-583.683655,4.328200,0,0,255
439.214539,-583.200500,4.328300,0,0,255
431.973846,-563.320190,4.328400,0,0,255
430.668213,-565.183960,4.328500,0,0,255
432.447693,-562.675903,4.328600,0,0,255
431.973846,-563.320190,4.328700,0,0,255
622.330566,-759.292664,4.328800,0,0,255
622.000610,-759.568787,4.328900,0,0,255
621.670715,-759.844849,4.329000,0,0,255
621.316223,-760.121033,4.329100,0,0,255
620.951233,-760.167053,4.329200,0,0,255
620.508972,-760.236084,4.329300,0,0,255
620.143921,-760.143982,4.329400,0,0,255
619.778931,-760.051941,4.329500,0,0,255
619.294617,-759.959961,4.329600,0,0,255
618.936584,-759.821899,4.329700,0,0,255
618.578613,-759.683777,4.329800,0,0,255
618.220581,-759.545776,4.329900,0,0,255
617.841553,-759.430725,4.330000,0,0,255
617.480042,-759.292664,4.330100,0,0,255
616.929016,-759.108582,4.330200,0,0,255
616.560486,-759.085571,4.330300,0,0,255
616.191956,-759.062561,4.330400,0,0,255
615.823425,-759.039551,4.330500,0,0,255
615.454895,-759.016602,4.330600,0,0,255
615.086365,-758.993530,4.330700,0,0,255
614.717834,-758.970520,4.330800,0,0,255
614.349304,-758.947510,4.330900,0,0,255
613.970276,-758.924500,4.331000,0,0,255
613.601685,-758.901489,4.331100,0,0,255
613.233215,-758.878479,4.331200,0,0,255
612.864624,-758.855530,4.331300,0,0,255
612.229370,-758.832458,4.331400,0,0,255
611.860901,-758.855530,4.331500,0,0,255
611.492310,-758.878479,4.331600,0,0,255
611.123840,-758.901489,4.331700,0,0,255
610.755249,-758.924500,4.331800,0,0,255
610.386780,-758.947510,4.331900,0,0,255
610.018188,-758.970520,4.332000,0,0,255
609.649719,-758.993530,4.332100,0,0,255
609.281128,-758.970520,4.332200,0,0,255
608.930237,-759.154602,4.332300,0,0,255
608.579224,-759.338684,4.332400,0,0,255
607.996643,-759.637817,4.332500,0,0,255
607.757935,-760.097961,4.332600,0,0,255
607.519287,-760.558167,4.332700,0,0,255
607.280640,-761.018372,4.332800,0,0,255
607.041931,-761.478577,4.332900,0,0,255
606.757629,-762.030762,4.333000,0,0,255
606.424194,-762.283875,4.333100,0,0,255
606.090759,-762.536987,4.333200,0,0,255
605.757324,-762.790100,4.333300,0,0,255
605.255493,-763.158264,4.333400,0,0,255
604.964172,-763.526428,4.333500,0,0,255
604.521912,-764.078674,4.333600,0,0,255
604.385010,-764.561829,4.333700,0,0,255
622.558716,-759.039551,4.333800,0,0,255
622.330566,-759.292664,4.333900,0,0,255
463.723358,-610.121643,4.334000,0,0,255
463.354828,-610.121643,4.334100,0,0,255
462.863464,-610.121643,4.334200,0,0,255
462.744141,-610.121643,4.334300,0,0,255
473.101501,-504.392670,4.334400,0,0,255
469.591705,-503.702393,4.334500,0,0,255
473.266479,-502.482880,4.334600,0,0,255
470.069031,-501.930664,4.334700,0,0,255
473.112030,-516.173584,4.334800,0,0,255
473.283997,-515.644348,4.334900,0,0,255
473.522675,-514.885071,4.335000,0,0,255
473.635010,-513.964661,4.335100,0,0,255
473.635010,-513.274414,4.335200,0,0,255
473.933350,-512.768188,4.335300,0,0,255
473.220825,-500.412048,4.335400,0,0,255
470.581482,-499.905823,4.335500,0,0,255
470.932465,-514.309814,4.335600,0,0,255
470.563934,-514.286804,4.335700,0,0,255
470.170837,-514.263794,4.335800,0,0,255
469.567169,-514.010681,4.335900,0,0,255
469.226715,-513.780579,4.336000,0,0,255
468.886261,-513.550537,4.336100,0,0,255
468.465057,-513.274414,4.336200,0,0,255
467.545502,-512.975281,4.336300,0,0,255
473.694672,-498.180115,4.336400,0,0,255
472.999725,-497.788940,4.336500,0,0,255
470.630646,-497.397766,4.336600,0,0,255
471.880096,-511.893799,4.336700,0,0,255
468.387878,-510.490204,4.336800,0,0,255
663.840820,-309.225555,4.336900,0,0,255
665.346497,-307.867981,4.337000,0,0,255
617.866089,-520.844543,4.337100,0,0,255
618.136353,-520.430359,4.337200,0,0,255
618.445251,-519.970154,4.337300,0,0,255
618.627747,-519.325928,4.337400,0,0,255
619.389404,-518.083374,4.337500,0,0,255
620.038635,-560.536011,4.337600,0,0,255
628.076050,-556.877502,4.337700,0,0,255
619.617493,-559.224487,4.337800,0,0,255
627.433777,-555.888123,4.337900,0,0,255
455.264771,-620.544983,4.338000,0,0,255
455.559601,-620.544983,4.338100,0,0,255
455.928131,-620.521973,4.338200,0,0,255
456.296661,-620.498962,4.338300,0,0,255
456.858215,-620.452942,4.338400,0,0,255
457.233795,-620.452942,4.338500,0,0,255
457.160065,-619.854675,4.338600,0,0,255
457.072327,-619.187439,4.338700,0,0,255
457.117950,-618.934326,4.338800,0,0,255
457.096893,-618.658203,4.338900,0,0,255
456.728363,-618.681213,4.339000,0,0,255
456.061493,-618.727234,4.339100,0,0,255
455.692993,-618.750244,4.339200,0,0,255
455.162994,-618.796265,4.339300,0,0,255
455.170013,-619.003357,4.339400,0,0,255
455.008575,-619.026367,4.339500,0,0,255
455.054199,-619.785645,4.339600,0,0,255
455.103333,-620.544983,4.339700,0,0,255
455.180542,-620.544983,4.339800,0,0,255
455.264771,-620.544983,4.339900,0,0,255
477.386963,-471.972198,4.340000,0,0,255
477.313232,-471.489014,4.340100,0,0,255
477.050018,-470.982788,4.340200,0,0,255
476.414734,-470.637665,4.340300,0,0,255
476.060242,-470.476593,4.340400,0,0,255
475.365326,-470.131470,4.340500,0,0,255
474.793213,-469.671265,4.340600,0,0,255
474.544037,-469.280090,4.340700,0,0,255
474.343994,-468.865906,4.340800,0,0,255
474.168488,-468.336700,4.340900,0,0,255
473.845581,-467.370300,4.341000,0,0,255
473.701691,-466.818085,4.341100,0,0,255
473.557770,-466.265839,4.341200,0,0,255
473.315613,-465.322449,4.341300,0,0,255
473.413879,-464.839264,4.341400,0,0,255
473.329651,-464.586151,4.341500,0,0,255
473.213837,-464.471100,4.341600,0,0,255
473.013763,-464.448090,4.341700,0,0,255
472.743500,-464.517090,4.341800,0,0,255
472.610138,-464.678192,4.341900,0,0,255
472.596100,-464.862274,4.342000,0,0,255
472.687378,-465.023346,4.342100,0,0,255
472.869873,-465.184387,4.342200,0,0,255
473.315613,-465.322449,4.342300,0,0,255
480.889709,-674.525452,4.342400,0,0,255
480.563324,-674.249268,4.342500,0,0,255
480.236877,-673.973206,4.342600,0,0,255
479.910522,-673.697083,4.342700,0,0,255
479.584106,-673.420959,4.342800,0,0,255
479.257690,-673.144836,4.342900,0,0,255
478.713654,-672.684631,4.343000,0,0,255
478.155609,-672.224487,4.343100,0,0,255
477.193909,-671.603210,4.343200,0,0,255
458.757019,-640.080078,4.343300,0,0,255
458.714905,-639.481873,4.343400,0,0,255
458.672791,-638.883606,4.343500,0,0,255
458.613098,-637.963257,4.343600,0,0,255
458.556946,-637.042847,4.343700,0,0,255
458.476227,-636.122437,4.343800,0,0,255
461.838593,-630.669189,4.343900,0,0,255
461.915833,-630.761230,4.344000,0,0,255
462.031647,-631.175415,4.344100,0,0,255
462.165009,-631.566589,4.344200,0,0,255
370.426270,-524.019836,4.344300,0,0,255
370.622803,-524.180908,4.344400,0,0,255
305.979553,-476.459076,4.344500,0,0,255
305.698792,-476.850220,4.344600,0,0,255
305.417999,-477.241394,4.344700,0,0,255
304.866974,-478.000702,4.344800,0,0,255
304.754639,-478.575958,4.344900,0,0,255
304.642365,-479.151215,4.345000,0,0,255
304.530029,-479.726440,4.345100,0,0,255
