X,Y,Z,R,G,B
889.513000,-454.738037,4.910600,0,0,255
889.572632,-454.669037,4.910700,0,0,255
889.572632,-454.669037,4.910800,0,0,255
889.611206,-454.576965,4.910900,0,0,255
889.639343,-454.415924,4.911000,0,0,255
889.670898,-454.346863,4.911100,0,0,255
889.670898,-454.346863,4.911200,0,0,255
889.670898,-454.254852,4.911300,0,0,255
889.709534,-454.070770,4.911400,0,0,255
889.709534,-453.978729,4.911500,0,0,255
889.709534,-453.886688,4.911600,0,0,255
889.709534,-453.886688,4.911700,0,0,255
889.709534,-453.702637,4.911800,0,0,255
889.709534,-453.702637,4.911900,0,0,255
889.709534,-453.587555,4.912000,0,0,255
889.709534,-453.472534,4.912100,0,0,255
889.709534,-453.472534,4.912200,0,0,255
889.709534,-453.265442,4.912300,0,0,255
889.709534,-453.127380,4.912400,0,0,255
889.709534,-453.127380,4.912500,0,0,255
889.670898,-453.012329,4.912600,0,0,255
889.670898,-453.012329,4.912700,0,0,255
889.670898,-453.012329,4.912800,0,0,255
889.611206,-452.805237,4.912900,0,0,255
889.611206,-452.805237,4.913000,0,0,255
889.572632,-452.690216,4.913100,0,0,255
889.572632,-452.690216,4.913200,0,0,255
889.541077,-452.598145,4.913300,0,0,255
889.541077,-452.598145,4.913400,0,0,255
889.474365,-452.368042,4.913500,0,0,255
889.442749,-452.230011,4.913600,0,0,255
889.442749,-452.230011,4.913700,0,0,255
889.407715,-452.160980,4.913800,0,0,255
889.407715,-452.160980,4.913900,0,0,255
889.407715,-452.160980,4.914000,0,0,255
889.344543,-451.930878,4.914100,0,0,255
889.344543,-451.930878,4.914200,0,0,255
889.277832,-451.838837,4.914300,0,0,255
889.277832,-451.838837,4.914400,0,0,255
889.242737,-451.746826,4.914500,0,0,255
889.242737,-451.746826,4.914600,0,0,255
889.211121,-451.585724,4.914700,0,0,255
889.211121,-451.585724,4.914800,0,0,255
889.179565,-451.493713,4.914900,0,0,255
889.144409,-451.424652,4.915000,0,0,255
889.144409,-451.424652,4.915100,0,0,255
889.112854,-451.263611,4.915200,0,0,255
889.112854,-451.263611,4.915300,0,0,255
889.112854,-451.194550,4.915400,0,0,255
889.077759,-451.102539,4.915500,0,0,255
889.077759,-451.102539,4.915600,0,0,255
889.046143,-450.987518,4.915700,0,0,255
889.046143,-450.987518,4.915800,0,0,255
889.014587,-450.918457,4.915900,0,0,255
889.014587,-450.918457,4.916000,0,0,255
888.979431,-450.849426,4.916100,0,0,255
888.979431,-450.849426,4.916200,0,0,255
888.909302,-450.734375,4.916300,0,0,255
888.909302,-450.734375,4.916400,0,0,255
888.881226,-450.665344,4.916500,0,0,255
888.849609,-450.596344,4.916600,0,0,255
888.849609,-450.596344,4.916700,0,0,255
888.849609,-450.596344,4.916800,0,0,255
888.810974,-450.504272,4.916900,0,0,255
888.810974,-450.504272,4.917000,0,0,255
888.810974,-450.435242,4.917100,0,0,255
888.810974,-450.435242,4.917200,0,0,255
888.782959,-450.389252,4.917300,0,0,255
888.782959,-450.389252,4.917400,0,0,255
888.751343,-450.297211,4.917500,0,0,255
888.751343,-450.297211,4.917600,0,0,255
888.751343,-450.228149,4.917700,0,0,255
888.751343,-450.228149,4.917800,0,0,255
888.712769,-450.159149,4.917900,0,0,255
888.712769,-450.159149,4.918000,0,0,255
888.712769,-450.159149,4.918100,0,0,255
888.684631,-450.067108,4.918200,0,0,255
888.684631,-450.067108,4.918300,0,0,255
888.684631,-449.998077,4.918400,0,0,255
888.646057,-449.975067,4.918500,0,0,255
888.646057,-449.975067,4.918600,0,0,255
888.646057,-449.975067,4.918700,0,0,255
888.646057,-449.883026,4.918800,0,0,255
888.646057,-449.837006,4.918900,0,0,255
888.646057,-449.837006,4.919000,0,0,255
888.617981,-449.814026,4.919100,0,0,255
888.617981,-449.814026,4.919200,0,0,255
888.617981,-449.744965,4.919300,0,0,255
888.617981,-449.721954,4.919400,0,0,255
888.617981,-449.721954,4.919500,0,0,255
888.617981,-449.675934,4.919600,0,0,255
888.617981,-449.675934,4.919700,0,0,255
888.646057,-449.629913,4.919800,0,0,255
888.646057,-449.629913,4.919900,0,0,255
888.646057,-449.629913,4.920000,0,0,255
888.646057,-449.629913,4.920100,0,0,255
888.646057,-449.606934,4.920200,0,0,255
888.646057,-449.606934,4.920300,0,0,255
888.646057,-449.514862,4.920400,0,0,255
888.646057,-449.468842,4.920500,0,0,255
888.646057,-449.468842,4.920600,0,0,255
888.646057,-449.445831,4.920700,0,0,255
888.646057,-449.445831,4.920800,0,0,255
888.646057,-449.353821,4.920900,0,0,255
888.617981,-449.284760,4.921000,0,0,255
888.617981,-449.284760,4.921100,0,0,255
888.617981,-449.238739,4.921200,0,0,255
888.617981,-449.238739,4.921300,0,0,255
888.617981,-449.238739,4.921400,0,0,255
888.586426,-449.146729,4.921500,0,0,255
888.586426,-449.146729,4.921600,0,0,255
888.547791,-449.123718,4.921700,0,0,255
888.547791,-449.123718,4.921800,0,0,255
888.519714,-449.054657,4.921900,0,0,255
888.519714,-449.054657,4.922000,0,0,255
888.481140,-448.939636,4.922100,0,0,255
888.481140,-448.939636,4.922200,0,0,255
888.449463,-448.893616,4.922300,0,0,255
888.449463,-448.824615,4.922400,0,0,255
888.449463,-448.824615,4.922500,0,0,255
888.449463,-448.824615,4.922600,0,0,255
888.421448,-448.709534,4.922700,0,0,255
888.421448,-448.709534,4.922800,0,0,255
888.382812,-448.640533,4.922900,0,0,255
888.382812,-448.640533,4.923000,0,0,255
888.382812,-448.617523,4.923100,0,0,255
888.382812,-448.617523,4.923200,0,0,255
888.382812,-448.525452,4.923300,0,0,255
888.382812,-448.525452,4.923400,0,0,255
888.382812,-448.479431,4.923500,0,0,255
888.382812,-448.479431,4.923600,0,0,255
888.382812,-448.456421,4.923700,0,0,255
888.351257,-448.364410,4.923800,0,0,255
888.351257,-448.364410,4.923900,0,0,255
888.351257,-448.295349,4.924000,0,0,255
888.351257,-448.295349,4.924100,0,0,255
888.351257,-448.272339,4.924200,0,0,255
888.351257,-448.272339,4.924300,0,0,255
888.316162,-448.203339,4.924400,0,0,255
888.316162,-448.134308,4.924500,0,0,255
888.284546,-448.111298,4.924600,0,0,255
888.284546,-448.111298,4.924700,0,0,255
888.284546,-448.042267,4.924800,0,0,255
888.284546,-448.042267,4.924900,0,0,255
888.284546,-448.019257,4.925000,0,0,255
888.284546,-447.996246,4.925100,0,0,255
888.284546,-447.996246,4.925200,0,0,255
888.252991,-447.881195,4.925300,0,0,255
888.252991,-447.881195,4.925400,0,0,255
888.217834,-447.858215,4.925500,0,0,255
888.217834,-447.789154,4.925600,0,0,255
888.217834,-447.789154,4.925700,0,0,255
888.154663,-447.743134,4.925800,0,0,255
888.154663,-447.743134,4.925900,0,0,255
888.119629,-447.697113,4.926000,0,0,255
888.119629,-447.697113,4.926100,0,0,255
888.119629,-447.674103,4.926200,0,0,255
888.119629,-447.674103,4.926300,0,0,255
888.119629,-447.674103,4.926400,0,0,255
888.119629,-447.605103,4.926500,0,0,255
888.119629,-447.605103,4.926600,0,0,255
888.088013,-447.582062,4.926700,0,0,255
888.088013,-447.536041,4.926800,0,0,255
888.088013,-447.536041,4.926900,0,0,255
888.088013,-447.467041,4.927000,0,0,255
888.088013,-447.467041,4.927100,0,0,255
888.088013,-447.444031,4.927200,0,0,255
888.088013,-447.375000,4.927300,0,0,255
888.088013,-447.375000,4.927400,0,0,255
888.052856,-447.328949,4.927500,0,0,255
888.052856,-447.328949,4.927600,0,0,255
888.021301,-447.305939,4.927700,0,0,255
888.021301,-447.305939,4.927800,0,0,255
887.989685,-447.213928,4.927900,0,0,255
887.989685,-447.213928,4.928000,0,0,255
887.954651,-447.098846,4.928100,0,0,255
887.923035,-447.075867,4.928200,0,0,255
887.923035,-447.075867,4.928300,0,0,255
887.887939,-447.006836,4.928400,0,0,255
887.887939,-447.006836,4.928500,0,0,255
887.856323,-446.937805,4.928600,0,0,255
887.856323,-446.937805,4.928700,0,0,255
887.856323,-446.891815,4.928800,0,0,255
887.824768,-446.845764,4.928900,0,0,255
887.824768,-446.845764,4.929000,0,0,255
887.789673,-446.753723,4.929100,0,0,255
887.789673,-446.753723,4.929200,0,0,255
887.758057,-446.684723,4.929300,0,0,255
887.719482,-446.661713,4.929400,0,0,255
887.719482,-446.661713,4.929500,0,0,255
887.719482,-446.661713,4.929600,0,0,255
887.659790,-446.569641,4.929700,0,0,255
887.659790,-446.569641,4.929800,0,0,255
887.659790,-446.523621,4.929900,0,0,255
887.659790,-446.523621,4.930000,0,0,255
887.621216,-446.477631,4.930100,0,0,255
887.621216,-446.477631,4.930200,0,0,255
887.593140,-446.408600,4.930300,0,0,255
887.593140,-446.408600,4.930400,0,0,255
887.561523,-446.385559,4.930500,0,0,255
887.561523,-446.385559,4.930600,0,0,255
887.522888,-446.316528,4.930700,0,0,255
887.522888,-446.316528,4.930800,0,0,255
887.522888,-446.316528,4.930900,0,0,255
887.494873,-446.247528,4.931000,0,0,255
887.494873,-446.247528,4.931100,0,0,255
887.456238,-446.224518,4.931200,0,0,255
887.456238,-446.224518,4.931300,0,0,255
887.424683,-446.178497,4.931400,0,0,255
887.424683,-446.178497,4.931500,0,0,255
887.424683,-446.178497,4.931600,0,0,255
887.396545,-446.086456,4.931700,0,0,255
887.396545,-446.086456,4.931800,0,0,255
887.357910,-446.063446,4.931900,0,0,255
887.329895,-445.994415,4.932000,0,0,255
887.329895,-445.994415,4.932100,0,0,255
887.329895,-445.994415,4.932200,0,0,255
887.291260,-445.948395,4.932300,0,0,255
887.291260,-445.948395,4.932400,0,0,255
887.259705,-445.902374,4.932500,0,0,255
887.259705,-445.902374,4.932600,0,0,255
887.231567,-445.856354,4.932700,0,0,255
887.231567,-445.856354,4.932800,0,0,255
887.231567,-445.856354,4.932900,0,0,255
887.192993,-445.810333,4.933000,0,0,255
887.192993,-445.810333,4.933100,0,0,255
887.192993,-445.787323,4.933200,0,0,255
887.192993,-445.787323,4.933300,0,0,255
887.161377,-445.741302,4.933400,0,0,255
887.161377,-445.741302,4.933500,0,0,255
887.161377,-445.741302,4.933600,0,0,255
887.094727,-445.649261,4.933700,0,0,255
887.094727,-445.649261,4.933800,0,0,255
887.094727,-445.626251,4.933900,0,0,255
887.094727,-445.626251,4.934000,0,0,255
887.063110,-445.580231,4.934100,0,0,255
887.063110,-445.580231,4.934200,0,0,255
887.063110,-445.580231,4.934300,0,0,255
887.028076,-445.534210,4.934400,0,0,255
887.028076,-445.534210,4.934500,0,0,255
887.028076,-445.488220,4.934600,0,0,255
887.028076,-445.488220,4.934700,0,0,255
886.996460,-445.442200,4.934800,0,0,255
886.996460,-445.442200,4.934900,0,0,255
886.996460,-445.442200,4.935000,0,0,255
886.964905,-445.373138,4.935100,0,0,255
886.964905,-445.373138,4.935200,0,0,255
886.929749,-445.327148,4.935300,0,0,255
886.929749,-445.327148,4.935400,0,0,255
886.929749,-445.304138,4.935500,0,0,255
886.929749,-445.304138,4.935600,0,0,255
886.929749,-445.304138,4.935700,0,0,255
886.898193,-445.235107,4.935800,0,0,255
886.898193,-445.235107,4.935900,0,0,255
886.898193,-445.212097,4.936000,0,0,255
886.898193,-445.166046,4.936100,0,0,255
886.898193,-445.166046,4.936200,0,0,255
886.863098,-445.143036,4.936300,0,0,255
886.863098,-445.143036,4.936400,0,0,255
886.863098,-445.120056,4.936500,0,0,255
886.863098,-445.120056,4.936600,0,0,255
886.863098,-445.074036,4.936700,0,0,255
886.863098,-445.074036,4.936800,0,0,255
886.831543,-445.051025,4.936900,0,0,255
886.831543,-445.051025,4.937000,0,0,255
886.831543,-445.028015,4.937100,0,0,255
886.831543,-445.028015,4.937200,0,0,255
886.831543,-445.028015,4.937300,0,0,255
886.831543,-444.958984,4.937400,0,0,255
886.831543,-444.958984,4.937500,0,0,255
886.799927,-444.912964,4.937600,0,0,255
886.799927,-444.889954,4.937700,0,0,255
886.799927,-444.889954,4.937800,0,0,255
886.799927,-444.866943,4.937900,0,0,255
886.799927,-444.866943,4.938000,0,0,255
886.799927,-444.866943,4.938100,0,0,255
886.764771,-444.820923,4.938200,0,0,255
886.764771,-444.820923,4.938300,0,0,255
886.764771,-444.820923,4.938400,0,0,255
886.764771,-444.820923,4.938500,0,0,255
886.764771,-444.797913,4.938600,0,0,255
886.764771,-444.797913,4.938700,0,0,255
886.733215,-444.774902,4.938800,0,0,255
886.733215,-444.774902,4.938900,0,0,255
886.698120,-444.751892,4.939000,0,0,255
886.666565,-444.705902,4.939100,0,0,255
886.666565,-444.705902,4.939200,0,0,255
886.634949,-444.659851,4.939300,0,0,255
886.568237,-444.636841,4.939400,0,0,255
886.568237,-444.636841,4.939500,0,0,255
886.529663,-444.613831,4.939600,0,0,255
886.501587,-444.590820,4.939700,0,0,255
886.501587,-444.590820,4.939800,0,0,255
886.501587,-444.590820,4.939900,0,0,255
886.431396,-444.521820,4.940000,0,0,255
886.431396,-444.521820,4.940100,0,0,255
886.403259,-444.475800,4.940200,0,0,255
886.364685,-444.429749,4.940300,0,0,255
886.364685,-444.429749,4.940400,0,0,255
886.333130,-444.360718,4.940500,0,0,255
886.305054,-444.337738,4.940600,0,0,255
886.305054,-444.291718,4.940700,0,0,255
886.305054,-444.291718,4.940800,0,0,255
886.234802,-444.222687,4.940900,0,0,255
886.234802,-444.222687,4.941000,0,0,255
886.234802,-444.199646,4.941100,0,0,255
886.206787,-444.176636,4.941200,0,0,255
886.206787,-444.176636,4.941300,0,0,255
886.136597,-444.107635,4.941400,0,0,255
886.101440,-444.084625,4.941500,0,0,255
886.101440,-444.038605,4.941600,0,0,255
886.101440,-444.038605,4.941700,0,0,255
886.041809,-444.015594,4.941800,0,0,255
886.041809,-443.969543,4.941900,0,0,255
886.041809,-443.969543,4.942000,0,0,255
886.003174,-443.946564,4.942100,0,0,255
886.003174,-443.946564,4.942200,0,0,255
885.971619,-443.877533,4.942300,0,0,255
885.971619,-443.877533,4.942400,0,0,255
885.936462,-443.854523,4.942500,0,0,255
885.936462,-443.854523,4.942600,0,0,255
885.936462,-443.831512,4.942700,0,0,255
885.936462,-443.831512,4.942800,0,0,255
885.873291,-443.762512,4.942900,0,0,255
885.838196,-443.693451,4.943000,0,0,255
885.806641,-443.670441,4.943100,0,0,255
885.806641,-443.670441,4.943200,0,0,255
885.806641,-443.670441,4.943300,0,0,255
885.771545,-443.555420,4.943400,0,0,255
885.771545,-443.532410,4.943500,0,0,255
885.771545,-443.532410,4.943600,0,0,255
885.739990,-443.509399,4.943700,0,0,255
885.739990,-443.509399,4.943800,0,0,255
885.739990,-443.509399,4.943900,0,0,255
885.708374,-443.440338,4.944000,0,0,255
885.708374,-443.440338,4.944100,0,0,255
885.708374,-443.417328,4.944200,0,0,255
885.708374,-443.417328,4.944300,0,0,255
885.708374,-443.394318,4.944400,0,0,255
885.708374,-443.394318,4.944500,0,0,255
885.708374,-443.394318,4.944600,0,0,255
885.673279,-443.279297,4.944700,0,0,255
885.673279,-443.279297,4.944800,0,0,255
885.641663,-443.233246,4.944900,0,0,255
885.641663,-443.187225,4.945000,0,0,255
885.641663,-443.187225,4.945100,0,0,255
885.575012,-443.095215,4.945200,0,0,255
885.575012,-443.026184,4.945300,0,0,255
885.575012,-443.026184,4.945400,0,0,255
885.543396,-443.003143,4.945500,0,0,255
885.504822,-442.934143,4.945600,0,0,255
885.504822,-442.934143,4.945700,0,0,255
885.476685,-442.911133,4.945800,0,0,255
885.445129,-442.842102,4.945900,0,0,255
885.445129,-442.842102,4.946000,0,0,255
885.410034,-442.773102,4.946100,0,0,255
885.410034,-442.773102,4.946200,0,0,255
885.378479,-442.727051,4.946300,0,0,255
885.378479,-442.727051,4.946400,0,0,255
885.311768,-442.681030,4.946500,0,0,255
885.311768,-442.681030,4.946600,0,0,255
885.241577,-442.612000,4.946700,0,0,255
885.241577,-442.612000,4.946800,0,0,255
885.241577,-442.589020,4.946900,0,0,255
885.213501,-442.566010,4.947000,0,0,255
885.213501,-442.566010,4.947100,0,0,255
885.143311,-442.496948,4.947200,0,0,255
885.115173,-442.473938,4.947300,0,0,255
885.115173,-442.473938,4.947400,0,0,255
885.076599,-442.404907,4.947500,0,0,255
884.978333,-442.335907,4.947600,0,0,255
884.946716,-442.266846,4.947700,0,0,255
884.946716,-442.266846,4.947800,0,0,255
884.911621,-442.243835,4.947900,0,0,255
884.911621,-442.243835,4.948000,0,0,255
884.848511,-442.174835,4.948100,0,0,255
884.848511,-442.151825,4.948200,0,0,255
884.848511,-442.151825,4.948300,0,0,255
884.813354,-442.105804,4.948400,0,0,255
884.781738,-442.059784,4.948500,0,0,255
884.781738,-442.036743,4.948600,0,0,255
884.781738,-442.036743,4.948700,0,0,255
884.746704,-441.967743,4.948800,0,0,255
884.746704,-441.967743,4.948900,0,0,255
884.683533,-441.875702,4.949000,0,0,255
884.648376,-441.829681,4.949100,0,0,255
884.616821,-441.783661,4.949200,0,0,255
884.581726,-441.714630,4.949300,0,0,255
884.581726,-441.668610,4.949400,0,0,255
884.550110,-441.645599,4.949500,0,0,255
884.550110,-441.645599,4.949600,0,0,255
884.518555,-441.553589,4.949700,0,0,255
884.518555,-441.553589,4.949800,0,0,255
884.483459,-441.530548,4.949900,0,0,255
884.483459,-441.530548,4.950000,0,0,255
884.483459,-441.461517,4.950100,0,0,255
884.483459,-441.461517,4.950200,0,0,255
884.483459,-441.461517,4.950300,0,0,255
884.413269,-441.392517,4.950400,0,0,255
884.413269,-441.392517,4.950500,0,0,255
884.413269,-441.369507,4.950600,0,0,255
884.413269,-441.323486,4.950700,0,0,255
884.413269,-441.323486,4.950800,0,0,255
884.413269,-441.323486,4.950900,0,0,255
884.353577,-441.231415,4.951000,0,0,255
884.353577,-441.231415,4.951100,0,0,255
884.353577,-441.162415,4.951200,0,0,255
884.353577,-441.162415,4.951300,0,0,255
884.314941,-441.139404,4.951400,0,0,255
884.314941,-441.139404,4.951500,0,0,255
884.255310,-441.070343,4.951600,0,0,255
884.255310,-441.070343,4.951700,0,0,255
884.216736,-441.047333,4.951800,0,0,255
884.216736,-441.047333,4.951900,0,0,255
884.188599,-441.001343,4.952000,0,0,255
884.188599,-441.001343,4.952100,0,0,255
884.188599,-441.001343,4.952200,0,0,255
884.149963,-440.978333,4.952300,0,0,255
884.121948,-440.955322,4.952400,0,0,255
884.121948,-440.932312,4.952500,0,0,255
884.090393,-440.863281,4.952600,0,0,255
884.051758,-440.840271,4.952700,0,0,255
884.023621,-440.794250,4.952800,0,0,255
884.023621,-440.794250,4.952900,0,0,255
884.023621,-440.794250,4.953000,0,0,255
883.985107,-440.702209,4.953100,0,0,255
883.985107,-440.702209,4.953200,0,0,255
883.953491,-440.702209,4.953300,0,0,255
883.925415,-440.633209,4.953400,0,0,255
883.925415,-440.633209,4.953500,0,0,255
883.886780,-440.564148,4.953600,0,0,255
883.886780,-440.564148,4.953700,0,0,255
883.855164,-440.541138,4.953800,0,0,255
883.820129,-440.518127,4.953900,0,0,255
883.820129,-440.518127,4.954000,0,0,255
883.820129,-440.518127,4.954100,0,0,255
883.788513,-440.449097,4.954200,0,0,255
883.756958,-440.426117,4.954300,0,0,255
883.721802,-440.357086,4.954400,0,0,255
883.721802,-440.357086,4.954500,0,0,255
883.658630,-440.288025,4.954600,0,0,255
883.658630,-440.288025,4.954700,0,0,255
883.623535,-440.265015,4.954800,0,0,255
883.623535,-440.265015,4.954900,0,0,255
883.591980,-440.219025,4.955000,0,0,255
883.556824,-440.196014,4.955100,0,0,255
883.556824,-440.196014,4.955200,0,0,255
883.525269,-440.173004,4.955300,0,0,255
883.525269,-440.126984,4.955400,0,0,255
883.525269,-440.126984,4.955500,0,0,255
883.493652,-440.057922,4.955600,0,0,255
883.493652,-440.057922,4.955700,0,0,255
883.493652,-440.034943,4.955800,0,0,255
883.493652,-440.034943,4.955900,0,0,255
883.458618,-440.011932,4.956000,0,0,255
883.427002,-439.942902,4.956100,0,0,255
883.427002,-439.942902,4.956200,0,0,255
883.391846,-439.873871,4.956300,0,0,255
883.391846,-439.873871,4.956400,0,0,255
883.360291,-439.850861,4.956500,0,0,255
883.360291,-439.850861,4.956600,0,0,255
883.293640,-439.781830,4.956700,0,0,255
883.293640,-439.781830,4.956800,0,0,255
883.262024,-439.781830,4.956900,0,0,255
883.262024,-439.781830,4.957000,0,0,255
883.223389,-439.758820,4.957100,0,0,255
883.195374,-439.689789,4.957200,0,0,255
883.163818,-439.643799,4.957300,0,0,255
883.125183,-439.643799,4.957400,0,0,255
883.065491,-439.574738,4.957500,0,0,255
883.065491,-439.574738,4.957600,0,0,255
883.026855,-439.528717,4.957700,0,0,255
882.998840,-439.505707,4.957800,0,0,255
882.998840,-439.505707,4.957900,0,0,255
882.998840,-439.505707,4.958000,0,0,255
882.928589,-439.436707,4.958100,0,0,255
882.928589,-439.436707,4.958200,0,0,255
882.861877,-439.413696,4.958300,0,0,255
882.861877,-439.413696,4.958400,0,0,255
882.833862,-439.367645,4.958500,0,0,255
882.833862,-439.367645,4.958600,0,0,255
882.763672,-439.275604,4.958700,0,0,255
882.735535,-439.252625,4.958800,0,0,255
882.697021,-439.229614,4.958900,0,0,255
882.697021,-439.229614,4.959000,0,0,255
882.697021,-439.229614,4.959100,0,0,255
882.665405,-439.160583,4.959200,0,0,255
882.665405,-439.160583,4.959300,0,0,255
882.630249,-439.114532,4.959400,0,0,255
882.630249,-439.114532,4.959500,0,0,255
882.630249,-439.091522,4.959600,0,0,255
882.630249,-439.091522,4.959700,0,0,255
882.630249,-439.091522,4.959800,0,0,255
882.598694,-438.999512,4.959900,0,0,255
882.598694,-438.953491,4.960000,0,0,255
882.598694,-438.953491,4.960100,0,0,255
882.567078,-438.907471,4.960200,0,0,255
882.532043,-438.838440,4.960300,0,0,255
882.532043,-438.838440,4.960400,0,0,255
882.500427,-438.815430,4.960500,0,0,255
882.500427,-438.746399,4.960600,0,0,255
882.500427,-438.746399,4.960700,0,0,255
882.500427,-438.746399,4.960800,0,0,255
882.468872,-438.677399,4.960900,0,0,255
882.468872,-438.677399,4.961000,0,0,255
882.433716,-438.677399,4.961100,0,0,255
882.433716,-438.608337,4.961200,0,0,255
882.433716,-438.608337,4.961300,0,0,255
882.433716,-438.608337,4.961400,0,0,255
882.402161,-438.539307,4.961500,0,0,255
882.367065,-438.493286,4.961600,0,0,255
882.335449,-438.447296,4.961700,0,0,255
882.335449,-438.447296,4.961800,0,0,255
882.303894,-438.424286,4.961900,0,0,255
882.303894,-438.424286,4.962000,0,0,255
882.268738,-438.401245,4.962100,0,0,255
882.268738,-438.401245,4.962200,0,0,255
882.268738,-438.378235,4.962300,0,0,255
882.268738,-438.378235,4.962400,0,0,255
882.268738,-438.378235,4.962500,0,0,255
882.237183,-438.309204,4.962600,0,0,255
882.237183,-438.309204,4.962700,0,0,255
882.237183,-438.263214,4.962800,0,0,255
882.237183,-438.263214,4.962900,0,0,255
882.198608,-438.240204,4.963000,0,0,255
882.198608,-438.240204,4.963100,0,0,255
882.198608,-438.240204,4.963200,0,0,255
882.170532,-438.171143,4.963300,0,0,255
882.170532,-438.171143,4.963400,0,0,255
882.138916,-438.148132,4.963500,0,0,255
882.138916,-438.148132,4.963600,0,0,255
882.103760,-438.079132,4.963700,0,0,255
882.072205,-438.056122,4.963800,0,0,255
882.033630,-438.010101,4.963900,0,0,255
882.005554,-438.010101,4.964000,0,0,255
882.005554,-438.010101,4.964100,0,0,255
882.005554,-438.010101,4.964200,0,0,255
881.973938,-437.987091,4.964300,0,0,255
881.973938,-437.987091,4.964400,0,0,255
881.973938,-437.964081,4.964500,0,0,255
881.935303,-437.918030,4.964600,0,0,255
881.935303,-437.918030,4.964700,0,0,255
881.868652,-437.895050,4.964800,0,0,255
881.868652,-437.895050,4.964900,0,0,255
881.837097,-437.872040,4.965000,0,0,255
881.837097,-437.872040,4.965100,0,0,255
881.808960,-437.826019,4.965200,0,0,255
881.808960,-437.826019,4.965300,0,0,255
881.808960,-437.826019,4.965400,0,0,255
881.738770,-437.756989,4.965500,0,0,255
881.738770,-437.756989,4.965600,0,0,255
881.710754,-437.733978,4.965700,0,0,255
881.710754,-437.733978,4.965800,0,0,255
881.710754,-437.733978,4.965900,0,0,255
881.710754,-437.733978,4.966000,0,0,255
881.710754,-437.733978,4.966100,0,0,255
881.640503,-437.664948,4.966200,0,0,255
881.640503,-437.664948,4.966300,0,0,255
881.605408,-437.641937,4.966400,0,0,255
881.573792,-437.618927,4.966500,0,0,255
881.573792,-437.618927,4.966600,0,0,255
881.507141,-437.549896,4.966700,0,0,255
881.507141,-437.549896,4.966800,0,0,255
881.475586,-437.503906,4.966900,0,0,255
881.440491,-437.457886,4.967000,0,0,255
881.440491,-437.457886,4.967100,0,0,255
881.440491,-437.457886,4.967200,0,0,255
881.377319,-437.388824,4.967300,0,0,255
881.377319,-437.388824,4.967400,0,0,255
881.342163,-437.342804,4.967500,0,0,255
881.310608,-437.319794,4.967600,0,0,255
881.310608,-437.319794,4.967700,0,0,255
881.243958,-437.250793,4.967800,0,0,255
881.212341,-437.227783,4.967900,0,0,255
881.212341,-437.227783,4.968000,0,0,255
881.177246,-437.204773,4.968100,0,0,255
881.177246,-437.204773,4.968200,0,0,255
881.114014,-437.135712,4.968300,0,0,255
881.114014,-437.089722,4.968400,0,0,255
881.078979,-437.066711,4.968500,0,0,255
881.078979,-437.066711,4.968600,0,0,255
881.078979,-437.066711,4.968700,0,0,255
881.047363,-437.043701,4.968800,0,0,255
881.047363,-437.043701,4.968900,0,0,255
881.047363,-437.020691,4.969000,0,0,255
881.047363,-437.020691,4.969100,0,0,255
881.008789,-437.020691,4.969200,0,0,255
881.008789,-437.020691,4.969300,0,0,255
880.980652,-436.951630,4.969400,0,0,255
880.949097,-436.882629,4.969500,0,0,255
880.949097,-436.882629,4.969600,0,0,255
880.910522,-436.859619,4.969700,0,0,255
880.910522,-436.859619,4.969800,0,0,255
880.910522,-436.859619,4.969900,0,0,255
880.815674,-436.790588,4.970000,0,0,255
880.784119,-436.767578,4.970100,0,0,255
880.784119,-436.767578,4.970200,0,0,255
880.745544,-436.767578,4.970300,0,0,255
880.745544,-436.767578,4.970400,0,0,255
880.678833,-436.652527,4.970500,0,0,255
880.678833,-436.652527,4.970600,0,0,255
880.619202,-436.629517,4.970700,0,0,255
880.619202,-436.629517,4.970800,0,0,255
880.580566,-436.606506,4.970900,0,0,255
880.580566,-436.606506,4.971000,0,0,255
880.482300,-436.537476,4.971100,0,0,255
880.450684,-436.514496,4.971200,0,0,255
880.450684,-436.514496,4.971300,0,0,255
880.415588,-436.445435,4.971400,0,0,255
880.415588,-436.445435,4.971500,0,0,255
880.352417,-436.376404,4.971600,0,0,255
880.352417,-436.376404,4.971700,0,0,255
880.352417,-436.353394,4.971800,0,0,255
880.352417,-436.353394,4.971900,0,0,255
880.285706,-436.307404,4.972000,0,0,255
880.285706,-436.307404,4.972100,0,0,255
880.219055,-436.215332,4.972200,0,0,255
880.219055,-436.215332,4.972300,0,0,255
880.187500,-436.146301,4.972400,0,0,255
880.187500,-436.146301,4.972500,0,0,255
880.152405,-436.123322,4.972600,0,0,255
880.152405,-436.123322,4.972700,0,0,255
880.152405,-436.123322,4.972800,0,0,255
880.085693,-436.054291,4.972900,0,0,255
880.085693,-436.054291,4.973000,0,0,255
880.054077,-436.031281,4.973100,0,0,255
880.022522,-435.962219,4.973200,0,0,255
880.022522,-435.962219,4.973300,0,0,255
880.022522,-435.962219,4.973400,0,0,255
879.987427,-435.939240,4.973500,0,0,255
879.987427,-435.939240,4.973600,0,0,255
879.955872,-435.893219,4.973700,0,0,255
879.955872,-435.870209,4.973800,0,0,255
879.924255,-435.824188,4.973900,0,0,255
879.924255,-435.824188,4.974000,0,0,255
879.889099,-435.824188,4.974100,0,0,255
879.889099,-435.824188,4.974200,0,0,255
939.193970,-423.422058,4.974300,0,0,255
939.232605,-423.283966,4.974400,0,0,255
939.232605,-423.283966,4.974500,0,0,255
939.232605,-423.237946,4.974600,0,0,255
939.232605,-423.237946,4.974700,0,0,255
939.232605,-423.191956,4.974800,0,0,255
939.232605,-423.191956,4.974900,0,0,255
939.232605,-423.099884,4.975000,0,0,255
939.232605,-423.099884,4.975100,0,0,255
939.232605,-423.076874,4.975200,0,0,255
939.232605,-423.007874,4.975300,0,0,255
939.232605,-423.007874,4.975400,0,0,255
939.193970,-422.938843,4.975500,0,0,255
939.193970,-422.938843,4.975600,0,0,255
939.193970,-422.892792,4.975700,0,0,255
939.193970,-422.846771,4.975800,0,0,255
939.193970,-422.846771,4.975900,0,0,255
939.193970,-422.777771,4.976000,0,0,255
939.193970,-422.754761,4.976100,0,0,255
939.193970,-422.731750,4.976200,0,0,255
939.193970,-422.662689,4.976300,0,0,255
939.193970,-422.662689,4.976400,0,0,255
939.193970,-422.616699,4.976500,0,0,255
939.193970,-422.616699,4.976600,0,0,255
939.193970,-422.593689,4.976700,0,0,255
939.193970,-422.593689,4.976800,0,0,255
939.193970,-422.524658,4.976900,0,0,255
939.193970,-422.524658,4.977000,0,0,255
939.193970,-422.501648,4.977100,0,0,255
939.193970,-422.432617,4.977200,0,0,255
939.193970,-422.432617,4.977300,0,0,255
939.127319,-422.340576,4.977400,0,0,255
939.095703,-422.317566,4.977500,0,0,255
939.095703,-422.317566,4.977600,0,0,255
939.067627,-422.271545,4.977700,0,0,255
939.067627,-422.271545,4.977800,0,0,255
939.067627,-422.271545,4.977900,0,0,255
939.000977,-422.202515,4.978000,0,0,255
938.962341,-422.156494,4.978100,0,0,255
938.962341,-422.156494,4.978200,0,0,255
938.930725,-422.110474,4.978300,0,0,255
938.930725,-422.110474,4.978400,0,0,255
938.902649,-422.041473,4.978500,0,0,255
938.902649,-421.995453,4.978600,0,0,255
938.902649,-421.995453,4.978700,0,0,255
938.902649,-421.972443,4.978800,0,0,255
938.864075,-421.880371,4.978900,0,0,255
938.864075,-421.880371,4.979000,0,0,255
938.832520,-421.834381,4.979100,0,0,255
938.832520,-421.834381,4.979200,0,0,255
938.804382,-421.788361,4.979300,0,0,255
938.804382,-421.788361,4.979400,0,0,255
938.765747,-421.719299,4.979500,0,0,255
938.765747,-421.719299,4.979600,0,0,255
938.765747,-421.719299,4.979700,0,0,255
938.765747,-421.719299,4.979800,0,0,255
938.734192,-421.650299,4.979900,0,0,255
938.734192,-421.581268,4.980000,0,0,255
938.734192,-421.581268,4.980100,0,0,255
938.699097,-421.581268,4.980200,0,0,255
938.734192,-421.558258,4.980300,0,0,255
938.699097,-421.489227,4.980400,0,0,255
938.699097,-421.489227,4.980500,0,0,255
938.699097,-421.489227,4.980600,0,0,255
938.699097,-421.466217,4.980700,0,0,255
938.699097,-421.466217,4.980800,0,0,255
938.734192,-421.420197,4.980900,0,0,255
938.734192,-421.420197,4.981000,0,0,255
938.734192,-421.397186,4.981100,0,0,255
938.734192,-421.397186,4.981200,0,0,255
938.734192,-421.397186,4.981300,0,0,255
938.734192,-421.328156,4.981400,0,0,255
938.734192,-421.305145,4.981500,0,0,255
938.734192,-421.305145,4.981600,0,0,255
938.734192,-421.282135,4.981700,0,0,255
938.734192,-421.282135,4.981800,0,0,255
938.699097,-421.167084,4.981900,0,0,255
938.699097,-421.167084,4.982000,0,0,255
938.667542,-421.167084,4.982100,0,0,255
938.667542,-421.167084,4.982200,0,0,255
938.667542,-421.144073,4.982300,0,0,255
938.635925,-421.121063,4.982400,0,0,255
938.635925,-421.121063,4.982500,0,0,255
938.600830,-421.075073,4.982600,0,0,255
938.600830,-421.075073,4.982700,0,0,255
938.600830,-421.075073,4.982800,0,0,255
938.569214,-421.075073,4.982900,0,0,255
938.569214,-421.052063,4.983000,0,0,255
938.569214,-421.052063,4.983100,0,0,255
938.569214,-421.052063,4.983200,0,0,255
938.534119,-420.983002,4.983300,0,0,255
938.534119,-420.983002,4.983400,0,0,255
938.534119,-420.983002,4.983500,0,0,255
938.534119,-420.983002,4.983600,0,0,255
938.502563,-420.959991,4.983700,0,0,255
938.502563,-420.959991,4.983800,0,0,255
938.435852,-420.913971,4.983900,0,0,255
938.435852,-420.913971,4.984000,0,0,255
938.435852,-420.913971,4.984100,0,0,255
938.404236,-420.890961,4.984200,0,0,255
938.404236,-420.890961,4.984300,0,0,255
938.404236,-420.844971,4.984400,0,0,255
938.404236,-420.844971,4.984500,0,0,255
938.369202,-420.844971,4.984600,0,0,255
938.369202,-420.844971,4.984700,0,0,255
938.337585,-420.798950,4.984800,0,0,255
938.337585,-420.798950,4.984900,0,0,255
938.306030,-420.729889,4.985000,0,0,255
938.306030,-420.729889,4.985100,0,0,255
938.270935,-420.706879,4.985200,0,0,255
938.270935,-420.706879,4.985300,0,0,255
938.239319,-420.683899,4.985400,0,0,255
938.239319,-420.683899,4.985500,0,0,255
938.207703,-420.614868,4.985600,0,0,255
938.207703,-420.614868,4.985700,0,0,255
938.172607,-420.614868,4.985800,0,0,255
938.141052,-420.591858,4.985900,0,0,255
938.141052,-420.591858,4.986000,0,0,255
938.141052,-420.591858,4.986100,0,0,255
938.102417,-420.522827,4.986200,0,0,255
938.074402,-420.476807,4.986300,0,0,255
938.074402,-420.476807,4.986400,0,0,255
938.042786,-420.453796,4.986500,0,0,255
938.042786,-420.453796,4.986600,0,0,255
937.937439,-420.361755,4.986700,0,0,255
937.937439,-420.361755,4.986800,0,0,255
937.905884,-420.338745,4.986900,0,0,255
937.905884,-420.338745,4.987000,0,0,255
937.877808,-420.338745,4.987100,0,0,255
937.877808,-420.338745,4.987200,0,0,255
937.772522,-420.223694,4.987300,0,0,255
937.772522,-420.223694,4.987400,0,0,255
937.740967,-420.200684,4.987500,0,0,255
937.740967,-420.200684,4.987600,0,0,255
937.712891,-420.177673,4.987700,0,0,255
937.712891,-420.177673,4.987800,0,0,255
937.712891,-420.177673,4.987900,0,0,255
937.642639,-420.108643,4.988000,0,0,255
937.642639,-420.108643,4.988100,0,0,255
937.607544,-420.108643,4.988200,0,0,255
937.607544,-420.108643,4.988300,0,0,255
937.575989,-420.062653,4.988400,0,0,255
937.575989,-420.062653,4.988500,0,0,255
937.575989,-420.062653,4.988600,0,0,255
937.509277,-420.016602,4.988700,0,0,255
937.509277,-420.016602,4.988800,0,0,255
937.477661,-419.970581,4.988900,0,0,255
937.477661,-419.970581,4.989000,0,0,255
937.446106,-419.947571,4.989100,0,0,255
937.446106,-419.947571,4.989200,0,0,255
937.446106,-419.947571,4.989300,0,0,255
937.379456,-419.878571,4.989400,0,0,255
937.379456,-419.878571,4.989500,0,0,255
937.312744,-419.855560,4.989600,0,0,255
937.312744,-419.855560,4.989700,0,0,255
937.281128,-419.809540,4.989800,0,0,255
937.281128,-419.809540,4.989900,0,0,255
937.281128,-419.809540,4.990000,0,0,255
937.214478,-419.740479,4.990100,0,0,255
937.214478,-419.740479,4.990200,0,0,255
937.175842,-419.694489,4.990300,0,0,255
937.175842,-419.694489,4.990400,0,0,255
937.147766,-419.671478,4.990500,0,0,255
937.147766,-419.671478,4.990600,0,0,255
937.147766,-419.671478,4.990700,0,0,255
937.116150,-419.579437,4.990800,0,0,255
937.116150,-419.579437,4.990900,0,0,255
937.081116,-419.533386,4.991000,0,0,255
937.081116,-419.533386,4.991100,0,0,255
937.081116,-419.510406,4.991200,0,0,255
937.081116,-419.510406,4.991300,0,0,255
937.081116,-419.510406,4.991400,0,0,255
937.010864,-419.418365,4.991500,0,0,255
937.010864,-419.418365,4.991600,0,0,255
936.982849,-419.372345,4.991700,0,0,255
936.982849,-419.372345,4.991800,0,0,255
936.951233,-419.349335,4.991900,0,0,255
936.951233,-419.349335,4.992000,0,0,255
936.951233,-419.349335,4.992100,0,0,255
936.912659,-419.280304,4.992200,0,0,255
936.912659,-419.280304,4.992300,0,0,255
936.884521,-419.257294,4.992400,0,0,255
936.884521,-419.257294,4.992500,0,0,255
936.884521,-419.234283,4.992600,0,0,255
936.884521,-419.234283,4.992700,0,0,255
936.884521,-419.234283,4.992800,0,0,255
936.852966,-419.165253,4.992900,0,0,255
936.852966,-419.165253,4.993000,0,0,255
936.814331,-419.119263,4.993100,0,0,255
936.814331,-419.119263,4.993200,0,0,255
936.814331,-419.096252,4.993300,0,0,255
936.814331,-419.096252,4.993400,0,0,255
936.814331,-419.096252,4.993500,0,0,255
936.814331,-419.027191,4.993600,0,0,255
936.814331,-419.027191,4.993700,0,0,255
936.786316,-419.004181,4.993800,0,0,255
936.786316,-419.004181,4.993900,0,0,255
936.786316,-418.981171,4.994000,0,0,255
936.786316,-418.981171,4.994100,0,0,255
936.786316,-418.981171,4.994200,0,0,255
936.786316,-418.912170,4.994300,0,0,255
936.786316,-418.912170,4.994400,0,0,255
936.786316,-418.912170,4.994500,0,0,255
936.786316,-418.912170,4.994600,0,0,255
936.747681,-418.912170,4.994700,0,0,255
936.747681,-418.912170,4.994800,0,0,255
936.747681,-418.912170,4.994900,0,0,255
936.747681,-418.843140,4.995000,0,0,255
936.747681,-418.843140,4.995100,0,0,255
936.747681,-418.820129,4.995200,0,0,255
936.747681,-418.820129,4.995300,0,0,255
936.747681,-418.820129,4.995400,0,0,255
936.716064,-418.751068,4.995500,0,0,255
936.716064,-418.751068,4.995600,0,0,255
936.716064,-418.751068,4.995700,0,0,255
936.716064,-418.751068,4.995800,0,0,255
936.716064,-418.728088,4.995900,0,0,255
936.716064,-418.728088,4.996000,0,0,255
936.716064,-418.728088,4.996100,0,0,255
936.716064,-418.659058,4.996200,0,0,255
936.716064,-418.659058,4.996300,0,0,255
936.687988,-418.659058,4.996400,0,0,255
936.687988,-418.613037,4.996500,0,0,255
936.687988,-418.613037,4.996600,0,0,255
936.617798,-418.566986,4.996700,0,0,255
936.617798,-418.566986,4.996800,0,0,255
936.582703,-418.566986,4.996900,0,0,255
936.582703,-418.566986,4.997000,0,0,255
936.551086,-418.497986,4.997100,0,0,255
936.551086,-418.497986,4.997200,0,0,255
936.551086,-418.497986,4.997300,0,0,255
936.484436,-418.451965,4.997400,0,0,255
936.452881,-418.428955,4.997500,0,0,255
936.452881,-418.428955,4.997600,0,0,255
936.417725,-418.428955,4.997700,0,0,255
936.417725,-418.428955,4.997800,0,0,255
936.417725,-418.428955,4.997900,0,0,255
936.386169,-418.382935,4.998000,0,0,255
936.354553,-418.336945,4.998100,0,0,255
936.354553,-418.336945,4.998200,0,0,255
936.354553,-418.336945,4.998300,0,0,255
936.354553,-418.336945,4.998400,0,0,255
936.354553,-418.336945,4.998500,0,0,255
936.287903,-418.290894,4.998600,0,0,255
936.287903,-418.290894,4.998700,0,0,255
936.256287,-418.244873,4.998800,0,0,255
936.256287,-418.244873,4.998900,0,0,255
936.256287,-418.221863,4.999000,0,0,255
936.256287,-418.221863,4.999100,0,0,255
936.256287,-418.221863,4.999200,0,0,255
936.189575,-418.152832,4.999300,0,0,255
936.189575,-418.129852,4.999400,0,0,255
936.189575,-418.129852,4.999500,0,0,255
936.154541,-418.083801,4.999600,0,0,255
936.154541,-418.083801,4.999700,0,0,255
936.122925,-418.037781,4.999800,0,0,255
936.122925,-418.037781,4.999900,0,0,255
936.122925,-417.968750,5.000000,0,0,255
936.091370,-417.922760,5.000100,0,0,255
936.091370,-417.922760,5.000200,0,0,255
936.091370,-417.922760,5.000300,0,0,255
936.056213,-417.830688,5.000400,0,0,255
936.056213,-417.807678,5.000500,0,0,255
936.056213,-417.807678,5.000600,0,0,255
936.024658,-417.761658,5.000700,0,0,255
936.024658,-417.761658,5.000800,0,0,255
935.957947,-417.715668,5.000900,0,0,255
935.957947,-417.715668,5.001000,0,0,255
935.926392,-417.669647,5.001100,0,0,255
935.926392,-417.669647,5.001200,0,0,255
935.887756,-417.623627,5.001300,0,0,255
935.887756,-417.623627,5.001400,0,0,255
935.821106,-417.554596,5.001500,0,0,255
935.821106,-417.508575,5.001600,0,0,255
935.821106,-417.508575,5.001700,0,0,255
935.792969,-417.485565,5.001800,0,0,255
935.792969,-417.485565,5.001900,0,0,255
935.694763,-417.393524,5.002000,0,0,255
935.694763,-417.393524,5.002100,0,0,255
935.663086,-417.393524,5.002200,0,0,255
935.663086,-417.393524,5.002300,0,0,255
935.624512,-417.347504,5.002400,0,0,255
935.624512,-417.347504,5.002500,0,0,255
935.526245,-417.255463,5.002600,0,0,255
935.526245,-417.255463,5.002700,0,0,255
935.459595,-417.232452,5.002800,0,0,255
935.427979,-417.186432,5.002900,0,0,255
935.427979,-417.186432,5.003000,0,0,255
935.329712,-417.117401,5.003100,0,0,255
935.329712,-417.117401,5.003200,0,0,255
935.294617,-417.048370,5.003300,0,0,255
935.294617,-417.048370,5.003400,0,0,255
935.263000,-417.025360,5.003500,0,0,255
935.263000,-417.025360,5.003600,0,0,255
935.196350,-416.933350,5.003700,0,0,255
935.196350,-416.933350,5.003800,0,0,255
935.164734,-416.887329,5.003900,0,0,255
935.164734,-416.887329,5.004000,0,0,255
935.164734,-416.818268,5.004100,0,0,255
935.164734,-416.818268,5.004200,0,0,255
935.164734,-416.818268,5.004300,0,0,255
935.129639,-416.772278,5.004400,0,0,255
935.129639,-416.772278,5.004500,0,0,255
935.098083,-416.703247,5.004600,0,0,255
935.098083,-416.634186,5.004700,0,0,255
935.098083,-416.634186,5.004800,0,0,255
935.098083,-416.634186,5.004900,0,0,255
935.031372,-416.565186,5.005000,0,0,255
935.031372,-416.565186,5.005100,0,0,255
934.999817,-416.542175,5.005200,0,0,255
934.999817,-416.542175,5.005300,0,0,255
934.964661,-416.519165,5.005400,0,0,255
934.964661,-416.519165,5.005500,0,0,255
934.964661,-416.519165,5.005600,0,0,255
934.901489,-416.450134,5.005700,0,0,255
934.866455,-416.450134,5.005800,0,0,255
934.834839,-416.427124,5.005900,0,0,255
934.834839,-416.427124,5.006000,0,0,255
934.834839,-416.427124,5.006100,0,0,255
934.768127,-416.381104,5.006200,0,0,255
934.768127,-416.358093,5.006300,0,0,255
934.768127,-416.358093,5.006400,0,0,255
934.736511,-416.358093,5.006500,0,0,255
934.697998,-416.312073,5.006600,0,0,255
934.669861,-416.266052,5.006700,0,0,255
934.669861,-416.266052,5.006800,0,0,255
934.631226,-416.220032,5.006900,0,0,255
934.631226,-416.220032,5.007000,0,0,255
934.631226,-416.220032,5.007100,0,0,255
934.571594,-416.151001,5.007200,0,0,255
934.533020,-416.127991,5.007300,0,0,255
934.504883,-416.058960,5.007400,0,0,255
934.504883,-416.058960,5.007500,0,0,255
934.434692,-415.989960,5.007600,0,0,255
934.406677,-415.943939,5.007700,0,0,255
934.406677,-415.874878,5.007800,0,0,255
934.406677,-415.874878,5.007900,0,0,255
934.336426,-415.782867,5.008000,0,0,255
934.336426,-415.782867,5.008100,0,0,255
934.308350,-415.759857,5.008200,0,0,255
934.308350,-415.759857,5.008300,0,0,255
934.308350,-415.736847,5.008400,0,0,255
934.308350,-415.736847,5.008500,0,0,255
934.269714,-415.621765,5.008600,0,0,255
934.269714,-415.598785,5.008700,0,0,255
934.269714,-415.598785,5.008800,0,0,255
934.269714,-415.529755,5.008900,0,0,255
934.269714,-415.529755,5.009000,0,0,255
934.269714,-415.529755,5.009100,0,0,255
934.269714,-415.460724,5.009200,0,0,255
934.269714,-415.460724,5.009300,0,0,255
934.269714,-415.437683,5.009400,0,0,255
934.269714,-415.437683,5.009500,0,0,255
934.238159,-415.368683,5.009600,0,0,255
934.238159,-415.368683,5.009700,0,0,255
934.238159,-415.322662,5.009800,0,0,255
934.203064,-415.276642,5.009900,0,0,255
934.171509,-415.207642,5.010000,0,0,255
934.171509,-415.207642,5.010100,0,0,255
934.104736,-415.161591,5.010200,0,0,255
934.104736,-415.115570,5.010300,0,0,255
934.104736,-415.115570,5.010400,0,0,255
934.073181,-415.092560,5.010500,0,0,255
934.073181,-415.092560,5.010600,0,0,255
934.073181,-415.092560,5.010700,0,0,255
934.006531,-415.000549,5.010800,0,0,255
933.974915,-414.954529,5.010900,0,0,255
933.974915,-414.954529,5.011000,0,0,255
933.939880,-414.931488,5.011100,0,0,255
933.939880,-414.931488,5.011200,0,0,255
933.939880,-414.931488,5.011300,0,0,255
933.841553,-414.839447,5.011400,0,0,255
933.841553,-414.839447,5.011500,0,0,255
933.809937,-414.770447,5.011600,0,0,255
933.809937,-414.770447,5.011700,0,0,255
933.774902,-414.747437,5.011800,0,0,255
933.774902,-414.747437,5.011900,0,0,255
933.711731,-414.678375,5.012000,0,0,255
933.676575,-414.632355,5.012100,0,0,255
933.645020,-414.586365,5.012200,0,0,255
933.578369,-414.517334,5.012300,0,0,255
933.578369,-414.517334,5.012400,0,0,255
933.546753,-414.471313,5.012500,0,0,255
933.546753,-414.471313,5.012600,0,0,255
933.480042,-414.402283,5.012700,0,0,255
933.480042,-414.402283,5.012800,0,0,255
933.480042,-414.402283,5.012900,0,0,255
933.409912,-414.310242,5.013000,0,0,255
933.381775,-414.264221,5.013100,0,0,255
933.381775,-414.264221,5.013200,0,0,255
933.343140,-414.241211,5.013300,0,0,255
933.343140,-414.241211,5.013400,0,0,255
933.276489,-414.149170,5.013500,0,0,255
933.276489,-414.149170,5.013600,0,0,255
933.244934,-414.126160,5.013700,0,0,255
933.244934,-414.126160,5.013800,0,0,255
933.244934,-414.080139,5.013900,0,0,255
933.244934,-414.080139,5.014000,0,0,255
933.178223,-414.011139,5.014100,0,0,255
933.178223,-414.011139,5.014200,0,0,255
933.146606,-413.965088,5.014300,0,0,255
933.146606,-413.965088,5.014400,0,0,255
933.111511,-413.919067,5.014500,0,0,255
933.111511,-413.919067,5.014600,0,0,255
933.111511,-413.919067,5.014700,0,0,255
933.048340,-413.827057,5.014800,0,0,255
933.013245,-413.804047,5.014900,0,0,255
932.981628,-413.734985,5.015000,0,0,255
932.981628,-413.734985,5.015100,0,0,255
932.914978,-413.665955,5.015200,0,0,255
932.914978,-413.665955,5.015300,0,0,255
932.883423,-413.642975,5.015400,0,0,255
932.883423,-413.642975,5.015500,0,0,255
932.848267,-413.596954,5.015600,0,0,255
932.848267,-413.596954,5.015700,0,0,255
932.785095,-413.573944,5.015800,0,0,255
932.785095,-413.573944,5.015900,0,0,255
932.750000,-413.550934,5.016000,0,0,255
932.750000,-413.550934,5.016100,0,0,255
932.750000,-413.504913,5.016200,0,0,255
932.679810,-413.435883,5.016300,0,0,255
932.651794,-413.366852,5.016400,0,0,255
932.651794,-413.366852,5.016500,0,0,255
932.651794,-413.320831,5.016600,0,0,255
932.553467,-413.205780,5.016700,0,0,255
932.514832,-413.159760,5.016800,0,0,255
932.514832,-413.159760,5.016900,0,0,255
932.486816,-413.113739,5.017000,0,0,255
932.486816,-413.113739,5.017100,0,0,255
932.486816,-413.113739,5.017200,0,0,255
932.388489,-413.044739,5.017300,0,0,255
932.388489,-413.044739,5.017400,0,0,255
932.356934,-413.021729,5.017500,0,0,255
932.318298,-412.975677,5.017600,0,0,255
932.318298,-412.975677,5.017700,0,0,255
932.318298,-412.975677,5.017800,0,0,255
932.251648,-412.883636,5.017900,0,0,255
932.251648,-412.883636,5.018000,0,0,255
932.191956,-412.860657,5.018100,0,0,255
932.191956,-412.860657,5.018200,0,0,255
932.153381,-412.814636,5.018300,0,0,255
932.153381,-412.814636,5.018400,0,0,255
932.055054,-412.722565,5.018500,0,0,255
931.988403,-412.699554,5.018600,0,0,255
931.956848,-412.653564,5.018700,0,0,255
931.858521,-412.607544,5.018800,0,0,255
931.858521,-412.607544,5.018900,0,0,255
931.823425,-412.607544,5.019000,0,0,255
931.791870,-412.561523,5.019100,0,0,255
931.791870,-412.561523,5.019200,0,0,255
931.791870,-412.561523,5.019300,0,0,255
931.725159,-412.515472,5.019400,0,0,255
931.725159,-412.515472,5.019500,0,0,255
931.693542,-412.469482,5.019600,0,0,255
931.626892,-412.400452,5.019700,0,0,255
931.626892,-412.400452,5.019800,0,0,255
931.560181,-412.354431,5.019900,0,0,255
931.489990,-412.331421,5.020000,0,0,255
931.489990,-412.331421,5.020100,0,0,255
931.461914,-412.285370,5.020200,0,0,255
931.391724,-412.239380,5.020300,0,0,255
931.391724,-412.216370,5.020400,0,0,255
931.363647,-412.193359,5.020500,0,0,255
931.296936,-412.170349,5.020600,0,0,255
931.296936,-412.170349,5.020700,0,0,255
931.265381,-412.124329,5.020800,0,0,255
931.265381,-412.124329,5.020900,0,0,255
931.226746,-412.101318,5.021000,0,0,255
931.226746,-412.101318,5.021100,0,0,255
931.128479,-412.009277,5.021200,0,0,255
931.100403,-411.963257,5.021300,0,0,255
931.100403,-411.963257,5.021400,0,0,255
931.030212,-411.940247,5.021500,0,0,255
930.963562,-411.848236,5.021600,0,0,255
930.896851,-411.825226,5.021700,0,0,255
930.896851,-411.825226,5.021800,0,0,255
930.865295,-411.779175,5.021900,0,0,255
930.731934,-411.687164,5.022000,0,0,255
930.731934,-411.687164,5.022100,0,0,255
930.700317,-411.618134,5.022200,0,0,255
930.668762,-411.595123,5.022300,0,0,255
930.535339,-411.503052,5.022400,0,0,255
930.535339,-411.503052,5.022500,0,0,255
930.503784,-411.457062,5.022600,0,0,255
930.437073,-411.411041,5.022700,0,0,255
930.437073,-411.411041,5.022800,0,0,255
930.437073,-411.411041,5.022900,0,0,255
930.338806,-411.295990,5.023000,0,0,255
930.272095,-411.272980,5.023100,0,0,255
930.240479,-411.203949,5.023200,0,0,255
930.240479,-411.203949,5.023300,0,0,255
930.240479,-411.203949,5.023400,0,0,255
930.103638,-411.157928,5.023500,0,0,255
930.103638,-411.157928,5.023600,0,0,255
930.075562,-411.134918,5.023700,0,0,255
930.075562,-411.134918,5.023800,0,0,255
930.036987,-411.088928,5.023900,0,0,255
930.036987,-411.088928,5.024000,0,0,255
930.036987,-411.088928,5.024100,0,0,255
929.970215,-411.019867,5.024200,0,0,255
929.970215,-411.019867,5.024300,0,0,255
929.938660,-410.973846,5.024400,0,0,255
929.938660,-410.973846,5.024500,0,0,255
929.910645,-410.927826,5.024600,0,0,255
929.840393,-410.858826,5.024700,0,0,255
929.840393,-410.858826,5.024800,0,0,255
929.812317,-410.835815,5.024900,0,0,255
929.812317,-410.835815,5.025000,0,0,255
929.812317,-410.766754,5.025100,0,0,255
929.773682,-410.720734,5.025200,0,0,255
929.773682,-410.720734,5.025300,0,0,255
929.742126,-410.674744,5.025400,0,0,255
929.742126,-410.674744,5.025500,0,0,255
929.707031,-410.651733,5.025600,0,0,255
929.707031,-410.651733,5.025700,0,0,255
929.643860,-410.559662,5.025800,0,0,255
929.643860,-410.559662,5.025900,0,0,255
929.608765,-410.513672,5.026000,0,0,255
929.608765,-410.513672,5.026100,0,0,255
929.577148,-410.490662,5.026200,0,0,255
929.577148,-410.490662,5.026300,0,0,255
929.542053,-410.421631,5.026400,0,0,255
929.478882,-410.398621,5.026500,0,0,255
929.478882,-410.398621,5.026600,0,0,255
929.443848,-410.352570,5.026700,0,0,255
929.443848,-410.352570,5.026800,0,0,255
929.443848,-410.352570,5.026900,0,0,255
929.373596,-410.329559,5.027000,0,0,255
929.373596,-410.329559,5.027100,0,0,255
929.345520,-410.306580,5.027200,0,0,255
929.345520,-410.260559,5.027300,0,0,255
929.345520,-410.260559,5.027400,0,0,255
929.345520,-410.260559,5.027500,0,0,255
929.247253,-410.214539,5.027600,0,0,255
929.247253,-410.214539,5.027700,0,0,255
929.215698,-410.214539,5.027800,0,0,255
929.215698,-410.214539,5.027900,0,0,255
929.180542,-410.168518,5.028000,0,0,255
929.180542,-410.168518,5.028100,0,0,255
929.180542,-410.168518,5.028200,0,0,255
929.110413,-410.145508,5.028300,0,0,255
929.110413,-410.145508,5.028400,0,0,255
929.082275,-410.145508,5.028500,0,0,255
929.082275,-410.145508,5.028600,0,0,255
929.050720,-410.145508,5.028700,0,0,255
929.050720,-410.145508,5.028800,0,0,255
929.050720,-410.145508,5.028900,0,0,255
928.984009,-410.099487,5.029000,0,0,255
928.984009,-410.099487,5.029100,0,0,255
928.984009,-410.099487,5.029200,0,0,255
928.945435,-410.076477,5.029300,0,0,255
928.945435,-410.076477,5.029400,0,0,255
991.131836,-394.153870,5.029500,0,0,255
991.033508,-394.130829,5.029600,0,0,255
990.963379,-394.084839,5.029700,0,0,255
990.963379,-394.084839,5.029800,0,0,255
990.935181,-394.061829,5.029900,0,0,255
990.935181,-394.061829,5.030000,0,0,255
990.836914,-394.038818,5.030100,0,0,255
990.836914,-394.038818,5.030200,0,0,255
990.766724,-394.038818,5.030300,0,0,255
990.766724,-394.038818,5.030400,0,0,255
