X,Y,Z,R,G,B
617.062378,-146.639954,0.731300,0,0,255
617.269470,-146.133743,0.731400,0,0,255
617.522156,-145.558517,0.731500,0,0,255
617.859070,-145.305405,0.731600,0,0,255
618.196045,-145.052292,0.731700,0,0,255
618.532959,-144.799194,0.731800,0,0,255
618.869934,-144.546097,0.731900,0,0,255
619.206848,-144.292984,0.732000,0,0,255
619.543823,-144.039886,0.732100,0,0,255
619.880737,-143.786774,0.732200,0,0,255
620.217651,-143.533676,0.732300,0,0,255
620.754639,-143.188522,0.732400,0,0,255
621.109131,-143.349594,0.732500,0,0,255
621.726868,-143.602692,0.732600,0,0,255
622.572754,-142.636292,0.732700,0,0,255
604.139343,-152.530411,0.732800,0,0,255
604.458740,-152.231293,0.732900,0,0,255
604.778137,-151.932159,0.733000,0,0,255
605.097534,-151.633041,0.733100,0,0,255
605.416870,-151.333908,0.733200,0,0,255
605.736267,-151.034790,0.733300,0,0,255
606.055725,-150.735657,0.733400,0,0,255
606.375122,-150.436539,0.733500,0,0,255
606.852417,-149.999359,0.733600,0,0,255
607.484131,-150.344498,0.733700,0,0,255
607.849243,-150.436539,0.733800,0,0,255
608.266846,-150.528580,0.733900,0,0,255
608.610840,-150.321487,0.734000,0,0,255
608.954773,-150.114410,0.734100,0,0,255
609.298706,-149.907333,0.734200,0,0,255
609.642700,-149.700241,0.734300,0,0,255
609.986633,-149.493149,0.734400,0,0,255
610.649963,-149.101990,0.734500,0,0,255
610.976440,-148.825882,0.734600,0,0,255
611.408081,-148.457733,0.734700,0,0,255
611.762573,-148.296646,0.734800,0,0,255
612.117065,-148.135590,0.734900,0,0,255
612.471619,-147.974518,0.735000,0,0,255
613.057739,-147.744431,0.735100,0,0,255
613.387634,-147.468307,0.735200,0,0,255
613.717590,-147.192184,0.735300,0,0,255
614.047424,-146.916077,0.735400,0,0,255
614.377380,-146.639954,0.735500,0,0,255
614.865234,-146.294830,0.735600,0,0,255
615.511047,-146.133743,0.735700,0,0,255
613.250793,-414.402283,0.735800,0,0,255
613.619263,-414.379272,0.735900,0,0,255
614.321228,-414.310242,0.736000,0,0,255
614.682739,-414.195190,0.736100,0,0,255
615.107422,-414.034149,0.736200,0,0,255
615.665466,-414.080139,0.736300,0,0,255
616.030457,-414.011139,0.736400,0,0,255
616.395508,-413.942078,0.736500,0,0,255
616.788574,-413.873047,0.736600,0,0,255
617.297485,-413.435883,0.736700,0,0,255
617.550232,-412.998688,0.736800,0,0,255
617.802917,-412.561523,0.736900,0,0,255
618.055603,-412.124329,0.737000,0,0,255
618.308350,-411.687164,0.737100,0,0,255
618.561035,-411.249969,0.737200,0,0,255
619.041870,-410.375610,0.737300,0,0,255
619.263062,-409.892426,0.737400,0,0,255
619.484131,-409.409210,0.737500,0,0,255
619.877258,-408.557861,0.737600,0,0,255
620.196594,-408.258728,0.737700,0,0,255
620.515991,-407.959625,0.737800,0,0,255
620.835388,-407.660461,0.737900,0,0,255
621.435608,-407.085236,0.738000,0,0,255
621.326782,-406.026794,0.738100,0,0,255
621.337280,-404.853302,0.738200,0,0,255
621.288208,-404.508148,0.738300,0,0,255
620.965210,-404.209045,0.738400,0,0,255
620.579163,-403.863922,0.738500,0,0,255
620.540588,-403.035553,0.738600,0,0,255
620.273865,-402.621399,0.738700,0,0,255
620.007080,-402.207214,0.738800,0,0,255
619.705261,-401.723999,0.738900,0,0,255
619.564880,-401.171783,0.739000,0,0,255
619.305176,-400.642548,0.739100,0,0,255
618.806763,-400.320435,0.739200,0,0,255
618.459290,-400.021301,0.739300,0,0,255
618.094238,-399.952301,0.739400,0,0,255
617.399292,-399.837219,0.739500,0,0,255
616.988708,-399.607117,0.739600,0,0,255
616.353394,-400.090332,0.739700,0,0,255
615.984863,-400.067322,0.739800,0,0,255
615.616333,-400.044312,0.739900,0,0,255
615.282898,-400.297424,0.740000,0,0,255
614.942444,-400.550537,0.740100,0,0,255
614.356323,-400.044312,0.740200,0,0,255
613.833374,-399.331024,0.740300,0,0,255
1061.664429,-141.301743,0.740400,0,0,255
1061.864380,-141.830963,0.740500,0,0,255
1062.085693,-142.314163,0.740600,0,0,255
1062.306763,-142.797363,0.740700,0,0,255
1062.527832,-143.280563,0.740800,0,0,255
1062.752441,-143.763779,0.740900,0,0,255
1064.366943,-146.639954,0.741000,0,0,255
890.485168,-132.788208,0.741100,0,0,255
890.214905,-132.742188,0.741200,0,0,255
889.842896,-132.903244,0.741300,0,0,255
889.776184,-133.087326,0.741400,0,0,255
890.014832,-133.455475,0.741500,0,0,255
889.948181,-133.616547,0.741600,0,0,255
888.758362,-133.248398,0.741700,0,0,255
889.365601,-133.616547,0.741800,0,0,255
889.948181,-133.616547,0.741900,0,0,255
824.083557,-184.490692,0.742000,0,0,255
824.617004,-183.869431,0.742100,0,0,255
820.991394,-188.609421,0.742200,0,0,255
821.619690,-188.678436,0.742300,0,0,255
824.617004,-183.869431,0.742400,0,0,255
824.960999,-183.662354,0.742500,0,0,255
825.304993,-183.455276,0.742600,0,0,255
825.648926,-183.248184,0.742700,0,0,255
825.992920,-183.041092,0.742800,0,0,255
826.336853,-182.834015,0.742900,0,0,255
826.680786,-182.626923,0.743000,0,0,255
827.294983,-182.235764,0.743100,0,0,255
827.649475,-182.074707,0.743200,0,0,255
828.003967,-181.913620,0.743300,0,0,255
828.358521,-181.752563,0.743400,0,0,255
828.712952,-181.591507,0.743500,0,0,255
829.067444,-181.430420,0.743600,0,0,255
829.421936,-181.269363,0.743700,0,0,255
829.776428,-181.108307,0.743800,0,0,255
830.130920,-180.947220,0.743900,0,0,255
830.780212,-180.556061,0.744000,0,0,255
830.601196,-180.026855,0.744100,0,0,255
830.422241,-179.497620,0.744200,0,0,255
830.243225,-178.968399,0.744300,0,0,255
830.064209,-178.439178,0.744400,0,0,255
829.871155,-177.909958,0.744500,0,0,255
830.106323,-177.449768,0.744600,0,0,255
830.341492,-176.989578,0.744700,0,0,255
830.643372,-176.391327,0.744800,0,0,255
830.994324,-176.207260,0.744900,0,0,255
831.345276,-176.023178,0.745000,0,0,255
831.696289,-175.839096,0.745100,0,0,255
832.047241,-175.655014,0.745200,0,0,255
832.647400,-175.332901,0.745300,0,0,255
832.889587,-174.872696,0.745400,0,0,255
833.131775,-174.412506,0.745500,0,0,255
833.373901,-173.952316,0.745600,0,0,255
833.616150,-173.492111,0.745700,0,0,255
833.858276,-173.031937,0.745800,0,0,255
834.100464,-172.571747,0.745900,0,0,255
834.447937,-171.927475,0.746000,0,0,255
834.419861,-171.329239,0.746100,0,0,255
834.391785,-170.730988,0.746200,0,0,255
834.339111,-169.603500,0.746300,0,0,255
834.619873,-169.212341,0.746400,0,0,255
835.079712,-168.568085,0.746500,0,0,255
835.279785,-168.061874,0.746600,0,0,255
835.479797,-167.555649,0.746700,0,0,255
835.679871,-167.049438,0.746800,0,0,255
835.890503,-166.497223,0.746900,0,0,255
836.220398,-166.221100,0.747000,0,0,255
836.550293,-165.944992,0.747100,0,0,255
837.189087,-165.438782,0.747200,0,0,255
837.469910,-164.495377,0.747300,0,0,255
837.118896,-164.311310,0.747400,0,0,255
836.767883,-164.127228,0.747500,0,0,255
836.360779,-163.920135,0.747600,0,0,255
836.234436,-163.275879,0.747700,0,0,255
836.539795,-162.930725,0.747800,0,0,255
836.883728,-162.562576,0.747900,0,0,255
837.241760,-162.424530,0.748000,0,0,255
837.898071,-162.148407,0.748100,0,0,255
837.929626,-161.550171,0.748200,0,0,255
837.961243,-160.951920,0.748300,0,0,255
838.006897,-160.146576,0.748400,0,0,255
838.175354,-159.617355,0.748500,0,0,255
838.371887,-158.973083,0.748600,0,0,255
838.694824,-158.673965,0.748700,0,0,255
839.038757,-158.374847,0.748800,0,0,255
839.379211,-157.477463,0.748900,0,0,255
839.140564,-156.557098,0.749000,0,0,255
838.803589,-156.326996,0.749100,0,0,255
838.220947,-155.912811,0.749200,0,0,255
838.063049,-155.268555,0.749300,0,0,255
838.263062,-154.440201,0.749400,0,0,255
838.568481,-153.565842,0.749500,0,0,255
840.084717,-151.264893,0.749600,0,0,255
821.619690,-188.678436,0.749700,0,0,255
821.693420,-188.080185,0.749800,0,0,255
821.805725,-187.205826,0.749900,0,0,255
822.128601,-186.515533,0.750000,0,0,255
822.430481,-186.170395,0.750100,0,0,255
822.732300,-185.825241,0.750200,0,0,255
823.132385,-185.388077,0.750300,0,0,255
824.083557,-184.490692,0.750400,0,0,255
802.070190,-143.372620,0.750500,0,0,255
802.431702,-143.257568,0.750600,0,0,255
802.793213,-143.142517,0.750700,0,0,255
803.154724,-143.027466,0.750800,0,0,255
803.516235,-142.912415,0.750900,0,0,255
803.877686,-142.797363,0.751000,0,0,255
804.239197,-142.682327,0.751100,0,0,255
804.600708,-142.567276,0.751200,0,0,255
804.962280,-142.452225,0.751300,0,0,255
805.597534,-142.222122,0.751400,0,0,255
805.920410,-142.245132,0.751500,0,0,255
807.696350,-144.638138,0.751600,0,0,255
763.069458,-160.905884,0.751700,0,0,255
763.434448,-160.813858,0.751800,0,0,255
763.799438,-160.721817,0.751900,0,0,255
764.164551,-160.629776,0.752000,0,0,255
764.529541,-160.537735,0.752100,0,0,255
764.894531,-160.445709,0.752200,0,0,255
765.259521,-160.353668,0.752300,0,0,255
765.624573,-160.261627,0.752400,0,0,255
765.989563,-160.169586,0.752500,0,0,255
766.354553,-160.077560,0.752600,0,0,255
766.719666,-159.985519,0.752700,0,0,255
767.084656,-159.893478,0.752800,0,0,255
767.449646,-159.801422,0.752900,0,0,255
767.814697,-159.709396,0.753000,0,0,255
768.179688,-159.617355,0.753100,0,0,255
768.544678,-159.525314,0.753200,0,0,255
769.106262,-159.479309,0.753300,0,0,255
769.292297,-160.008514,0.753400,0,0,255
769.478271,-160.537735,0.753500,0,0,255
769.664307,-161.066971,0.753600,0,0,255
769.980164,-161.895309,0.753700,0,0,255
770.696167,-163.874130,0.753800,0,0,255
810.419922,-154.969421,0.753900,0,0,255
810.774414,-154.808365,0.754000,0,0,255
811.128967,-154.647293,0.754100,0,0,255
811.483459,-154.486221,0.754200,0,0,255
811.837891,-154.325150,0.754300,0,0,255
812.192383,-154.164093,0.754400,0,0,255
812.736389,-153.887970,0.754500,0,0,255
812.982117,-153.910995,0.754600,0,0,255
813.312012,-154.279144,0.754700,0,0,255
813.473450,-154.831360,0.754800,0,0,255
813.634949,-155.383606,0.754900,0,0,255
813.796326,-155.935822,0.755000,0,0,255
813.957825,-156.488052,0.755100,0,0,255
814.119263,-157.040283,0.755200,0,0,255
814.280701,-157.592514,0.755300,0,0,255
814.442200,-158.144745,0.755400,0,0,255
814.747498,-159.042114,0.755500,0,0,255
814.894897,-159.594360,0.755600,0,0,255
815.042297,-160.146576,0.755700,0,0,255
815.263489,-160.951920,0.755800,0,0,255
815.593384,-163.367920,0.755900,0,0,255
738.908081,-141.577866,0.756000,0,0,255
738.500916,-141.830963,0.756100,0,0,255
738.142944,-141.969025,0.756200,0,0,255
737.784973,-142.107071,0.756300,0,0,255
737.426941,-142.245132,0.756400,0,0,255
737.068970,-142.383194,0.756500,0,0,255
736.710938,-142.521240,0.756600,0,0,255
736.352966,-142.659317,0.756700,0,0,255
735.994934,-142.797363,0.756800,0,0,255
735.636963,-142.935425,0.756900,0,0,255
735.278931,-143.073486,0.757000,0,0,255
734.920959,-143.211533,0.757100,0,0,255
734.366394,-143.418625,0.757200,0,0,255
733.938232,-143.556686,0.757300,0,0,255
733.225769,-143.786774,0.757400,0,0,255
732.867737,-143.924835,0.757500,0,0,255
732.509766,-144.062881,0.757600,0,0,255
732.141235,-144.200943,0.757700,0,0,255
731.786743,-144.362015,0.757800,0,0,255
731.432251,-144.523087,0.757900,0,0,255
731.077759,-144.684143,0.758000,0,0,255
730.723267,-144.845215,0.758100,0,0,255
730.368774,-145.006287,0.758200,0,0,255
730.014282,-145.167343,0.758300,0,0,255
729.659790,-145.328430,0.758400,0,0,255
729.305298,-145.489487,0.758500,0,0,255
728.950806,-145.650543,0.758600,0,0,255
728.413818,-146.018692,0.758700,0,0,255
728.182190,-145.834625,0.758800,0,0,255
727.978577,-145.328430,0.758900,0,0,255
727.775085,-144.822205,0.759000,0,0,255
727.571472,-144.315994,0.759100,0,0,255
727.367920,-143.809784,0.759200,0,0,255
727.164368,-143.303574,0.759300,0,0,255
726.830933,-142.498230,0.759400,0,0,255
726.620361,-142.130081,0.759500,0,0,255
726.244751,-141.899994,0.759600,0,0,255
733.938232,-143.556686,0.759700,0,0,255
733.896118,-143.924835,0.759800,0,0,255
733.618835,-144.177933,0.759900,0,0,255
733.625854,-145.144333,0.760000,0,0,255
733.204712,-145.512497,0.760100,0,0,255
732.934448,-146.018692,0.760200,0,0,255
732.867737,-146.616943,0.760300,0,0,255
732.801086,-147.215195,0.760400,0,0,255
732.734375,-147.813446,0.760500,0,0,255
732.622009,-148.779846,0.760600,0,0,255
732.379883,-149.240051,0.760700,0,0,255
732.035950,-149.884308,0.760800,0,0,255
731.944641,-150.850708,0.760900,0,0,255
731.962219,-151.840118,0.761000,0,0,255
732.165771,-152.783508,0.761100,0,0,255
732.053467,-153.841949,0.761200,0,0,255
731.934143,-154.923401,0.761300,0,0,255
731.758606,-155.751755,0.761400,0,0,255
731.639343,-156.626114,0.761500,0,0,255
731.579651,-159.042114,0.761600,0,0,255
731.758606,-155.751755,0.761700,0,0,255
731.639343,-156.626114,0.761800,0,0,255
744.379883,-140.312332,0.761900,0,0,255
744.927368,-140.059219,0.762000,0,0,255
726.244751,-141.899994,0.762100,0,0,255
725.981567,-141.784943,0.762200,0,0,255
725.981567,-141.784943,0.762300,0,0,255
725.613037,-141.830963,0.762400,0,0,255
724.928650,-141.922989,0.762500,0,0,255
724.563599,-141.992035,0.762600,0,0,255
724.166992,-142.084076,0.762700,0,0,255
723.303589,-142.452225,0.762800,0,0,255
736.742554,-136.607803,0.762900,0,0,255
736.819763,-137.505173,0.763000,0,0,255
736.896973,-137.850311,0.763100,0,0,255
737.139160,-138.310501,0.763200,0,0,255
737.381348,-138.770691,0.763300,0,0,255
737.623474,-139.230881,0.763400,0,0,255
737.865662,-139.691071,0.763500,0,0,255
738.107849,-140.151260,0.763600,0,0,255
738.350037,-140.611465,0.763700,0,0,255
738.592163,-141.071640,0.763800,0,0,255
738.908081,-141.577866,0.763900,0,0,255
739.290649,-141.738922,0.764000,0,0,255
739.975037,-141.577866,0.764100,0,0,255
740.336548,-141.462814,0.764200,0,0,255
740.698059,-141.347763,0.764300,0,0,255
741.059570,-141.232712,0.764400,0,0,255
741.421082,-141.117676,0.764500,0,0,255
741.782593,-141.002625,0.764600,0,0,255
742.144104,-140.887573,0.764700,0,0,255
742.505615,-140.772522,0.764800,0,0,255
742.867126,-140.657471,0.764900,0,0,255
743.228638,-140.542419,0.765000,0,0,255
743.590088,-140.427383,0.765100,0,0,255
743.951599,-140.312332,0.765200,0,0,255
744.379883,-140.312332,0.765300,0,0,255
747.222778,-145.328430,0.765400,0,0,255
670.576050,-143.763779,0.765500,0,0,255
671.078003,-144.200943,0.765600,0,0,255
671.365784,-144.707169,0.765700,0,0,255
671.878235,-145.144333,0.765800,0,0,255
672.229126,-145.328430,0.765900,0,0,255
672.710022,-145.581528,0.766000,0,0,255
673.075073,-145.673553,0.766100,0,0,255
673.440063,-145.765594,0.766200,0,0,255
673.805054,-145.857635,0.766300,0,0,255
674.408752,-146.018692,0.766400,0,0,255
674.749207,-145.788605,0.766500,0,0,255
675.359924,-145.397446,0.766600,0,0,255
675.710938,-145.213379,0.766700,0,0,255
676.061829,-145.029297,0.766800,0,0,255
676.472534,-144.845215,0.766900,0,0,255
676.834045,-144.730179,0.767000,0,0,255
677.195557,-144.615128,0.767100,0,0,255
677.732483,-144.408035,0.767200,0,0,255
678.343201,-144.269974,0.767300,0,0,255
679.547058,-143.418625,0.767400,0,0,255
660.618835,-134.145767,0.767500,0,0,255
661.046997,-134.467896,0.767600,0,0,255
661.204956,-135.020126,0.767700,0,0,255
661.362854,-135.572357,0.767800,0,0,255
661.520813,-136.124603,0.767900,0,0,255
661.678772,-136.676819,0.768000,0,0,255
661.836731,-137.229050,0.768100,0,0,255
662.138550,-138.241470,0.768200,0,0,255
662.752747,-138.701660,0.768300,0,0,255
662.900146,-138.609619,0.768400,0,0,255
663.514343,-139.230881,0.768500,0,0,255
663.731995,-139.714081,0.768600,0,0,255
663.949585,-140.197281,0.768700,0,0,255
664.268982,-140.910583,0.768800,0,0,255
664.619995,-141.232712,0.768900,0,0,255
665.272827,-141.393784,0.769000,0,0,255
665.599182,-141.669891,0.769100,0,0,255
666.115173,-142.107071,0.769200,0,0,255
666.473145,-142.245132,0.769300,0,0,255
666.831177,-142.383194,0.769400,0,0,255
667.189148,-142.521240,0.769500,0,0,255
667.880554,-142.820374,0.769600,0,0,255
668.951050,-143.096481,0.769700,0,0,255
668.951050,-143.096481,0.769800,0,0,255
670.576050,-143.763779,0.769900,0,0,255
678.343201,-144.269974,0.770000,0,0,255
678.308167,-144.408035,0.770100,0,0,255
681.972351,-148.871887,0.770200,0,0,255
685.285583,-136.860901,0.770300,0,0,255
685.650635,-136.791870,0.770400,0,0,255
686.015625,-136.722855,0.770500,0,0,255
686.380615,-136.653809,0.770600,0,0,255
686.745667,-136.584778,0.770700,0,0,255
687.110657,-136.515762,0.770800,0,0,255
687.475647,-136.446716,0.770900,0,0,255
687.840698,-136.377701,0.771000,0,0,255
688.205750,-136.308670,0.771100,0,0,255
688.570740,-136.239624,0.771200,0,0,255
688.935730,-136.170609,0.771300,0,0,255
689.300781,-136.101578,0.771400,0,0,255
689.665771,-136.032562,0.771500,0,0,255
690.030762,-135.963516,0.771600,0,0,255
690.395874,-135.894501,0.771700,0,0,255
690.760864,-135.825470,0.771800,0,0,255
691.273254,-135.848465,0.771900,0,0,255
691.638306,-135.779449,0.772000,0,0,255
692.003296,-135.710419,0.772100,0,0,255
692.368347,-135.641403,0.772200,0,0,255
692.733337,-135.572357,0.772300,0,0,255
693.098389,-135.503326,0.772400,0,0,255
693.652893,-135.457306,0.772500,0,0,255
694.526855,-135.296249,0.772600,0,0,255
919.921753,-234.283401,0.772700,0,0,255
920.037598,-234.858643,0.772800,0,0,255
920.153381,-235.433884,0.772900,0,0,255
920.269226,-236.009109,0.773000,0,0,255
920.385010,-236.584351,0.773100,0,0,255
920.500916,-237.159592,0.773200,0,0,255
920.616699,-237.734833,0.773300,0,0,255
920.732544,-238.310059,0.773400,0,0,255
920.848328,-238.885315,0.773500,0,0,255
920.964172,-239.460556,0.773600,0,0,255
921.079956,-240.035797,0.773700,0,0,255
921.308105,-241.048203,0.773800,0,0,255
921.013306,-242.750916,0.773900,0,0,255
915.327393,-235.065735,0.774000,0,0,255
915.692505,-234.996689,0.774100,0,0,255
916.057495,-234.927658,0.774200,0,0,255
916.422485,-234.858643,0.774300,0,0,255
916.787537,-234.789597,0.774400,0,0,255
917.152527,-234.720581,0.774500,0,0,255
917.517517,-234.651550,0.774600,0,0,255
917.882568,-234.582535,0.774700,0,0,255
918.247620,-234.513489,0.774800,0,0,255
918.612610,-234.444458,0.774900,0,0,255
918.977600,-234.375443,0.775000,0,0,255
919.342651,-234.306396,0.775100,0,0,255
919.921753,-234.283401,0.775200,0,0,255
920.286743,-234.214371,0.775300,0,0,255
920.651794,-234.145340,0.775400,0,0,255
921.016785,-234.076309,0.775500,0,0,255
921.381775,-234.007278,0.775600,0,0,255
921.746887,-233.938248,0.775700,0,0,255
922.111877,-233.869232,0.775800,0,0,255
922.476868,-233.800201,0.775900,0,0,255
922.841919,-233.731171,0.776000,0,0,255
923.206909,-233.662140,0.776100,0,0,255
923.571899,-233.593109,0.776200,0,0,255
923.936890,-233.524078,0.776300,0,0,255
924.302002,-233.455048,0.776400,0,0,255
924.666992,-233.386032,0.776500,0,0,255
925.267151,-233.339996,0.776600,0,0,255
925.639160,-233.501083,0.776700,0,0,255
927.615234,-234.950684,0.776800,0,0,255
940.787415,-250.413116,0.776900,0,0,255
940.738281,-251.011368,0.777000,0,0,255
940.678589,-251.747665,0.777100,0,0,255
940.685608,-252.322891,0.777200,0,0,255
940.826050,-252.875122,0.777300,0,0,255
940.966431,-253.427353,0.777400,0,0,255
941.148926,-254.186676,0.777500,0,0,255
941.334961,-254.761902,0.777600,0,0,255
963.014954,-282.235352,0.777700,0,0,255
963.285156,-282.649506,0.777800,0,0,255
963.555420,-283.063660,0.777900,0,0,255
963.825623,-283.477844,0.778000,0,0,255
964.095947,-283.892029,0.778100,0,0,255
964.366150,-284.306183,0.778200,0,0,255
964.636475,-284.720367,0.778300,0,0,255
964.906677,-285.134552,0.778400,0,0,255
965.440186,-285.870850,0.778500,0,0,255
965.752502,-286.192963,0.778600,0,0,255
966.064941,-286.515137,0.778700,0,0,255
966.377197,-286.837250,0.778800,0,0,255
966.689636,-287.159363,0.778900,0,0,255
967.001953,-287.481537,0.779000,0,0,255
967.314392,-287.803650,0.779100,0,0,255
967.626831,-288.125763,0.779200,0,0,255
968.216431,-288.747040,0.779300,0,0,255
968.560425,-288.954132,0.779400,0,0,255
968.981567,-289.230255,0.779500,0,0,255
969.343079,-289.345276,0.779600,0,0,255
969.704590,-289.460358,0.779700,0,0,255
970.066101,-289.575378,0.779800,0,0,255
970.427490,-289.690430,0.779900,0,0,255
970.789062,-289.805481,0.780000,0,0,255
971.150574,-289.920532,0.780100,0,0,255
971.512085,-290.035583,0.780200,0,0,255
971.873596,-290.150635,0.780300,0,0,255
972.235107,-290.265686,0.780400,0,0,255
972.866821,-290.449768,0.780500,0,0,255
973.228333,-290.564789,0.780600,0,0,255
973.589844,-290.679840,0.780700,0,0,255
973.951355,-290.794891,0.780800,0,0,255
974.312866,-290.909943,0.780900,0,0,255
974.674438,-291.024994,0.781000,0,0,255
975.035950,-291.140045,0.781100,0,0,255
975.397461,-291.255066,0.781200,0,0,255
975.758972,-291.370148,0.781300,0,0,255
976.159058,-291.462158,0.781400,0,0,255
976.513489,-291.623260,0.781500,0,0,255
976.868042,-291.784302,0.781600,0,0,255
977.222534,-291.945374,0.781700,0,0,255
977.576965,-292.106445,0.781800,0,0,255
977.931519,-292.267487,0.781900,0,0,255
978.394775,-292.497589,0.782000,0,0,255
978.745789,-292.681671,0.782100,0,0,255
979.096741,-292.865753,0.782200,0,0,255
979.672302,-293.164886,0.782300,0,0,255
980.318176,-293.533051,0.782400,0,0,255
980.163696,-294.085266,0.782500,0,0,255
979.851379,-295.166687,0.782600,0,0,255
979.974182,-295.741974,0.782700,0,0,255
980.096985,-296.317200,0.782800,0,0,255
980.219849,-296.892426,0.782900,0,0,255
980.342651,-297.467682,0.783000,0,0,255
980.465576,-298.042908,0.783100,0,0,255
980.588379,-298.618164,0.783200,0,0,255
980.711182,-299.193390,0.783300,0,0,255
980.834106,-299.768616,0.783400,0,0,255
980.956909,-300.343872,0.783500,0,0,255
981.167480,-301.333282,0.783600,0,0,255
981.406189,-301.793488,0.783700,0,0,255
981.644775,-302.253662,0.783800,0,0,255
981.883484,-302.713867,0.783900,0,0,255
982.122131,-303.174042,0.784000,0,0,255
982.360840,-303.634216,0.784100,0,0,255
982.676697,-304.209473,0.784200,0,0,255
982.855713,-304.738708,0.784300,0,0,255
983.034668,-305.267914,0.784400,0,0,255
983.213623,-305.797119,0.784500,0,0,255
983.392761,-306.326324,0.784600,0,0,255
983.690979,-307.200714,0.784700,0,0,255
983.894592,-307.706909,0.784800,0,0,255
984.133301,-308.305176,0.784900,0,0,255
984.417603,-308.696320,0.785000,0,0,255
984.701843,-309.087494,0.785100,0,0,255
985.270386,-309.846802,0.785200,0,0,255
985.565308,-310.214935,0.785300,0,0,255
985.860107,-310.583130,0.785400,0,0,255
986.154907,-310.951294,0.785500,0,0,255
986.449707,-311.319427,0.785600,0,0,255
986.744507,-311.687592,0.785700,0,0,255
987.095459,-312.101746,0.785800,0,0,255
987.407898,-312.423889,0.785900,0,0,255
987.720215,-312.746033,0.786000,0,0,255
988.032654,-313.068146,0.786100,0,0,255
988.345093,-313.390289,0.786200,0,0,255
988.657349,-313.712433,0.786300,0,0,255
988.969788,-314.034546,0.786400,0,0,255
989.292664,-314.356689,0.786500,0,0,255
989.629578,-314.609802,0.786600,0,0,255
990.114014,-314.954926,0.786700,0,0,255
990.366699,-315.622223,0.786800,0,0,255
990.693054,-315.898315,0.786900,0,0,255
991.019409,-316.174438,0.787000,0,0,255
991.612610,-316.703644,0.787100,0,0,255
991.882874,-317.117828,0.787200,0,0,255
992.363647,-317.831146,0.787300,0,0,255
992.363647,-318.337341,0.787400,0,0,255
992.286499,-319.142670,0.787500,0,0,255
991.935547,-319.326752,0.787600,0,0,255
991.265137,-319.694916,0.787700,0,0,255
990.917725,-319.902008,0.787800,0,0,255
990.570251,-320.109070,0.787900,0,0,255
990.215698,-320.316162,0.788000,0,0,255
989.934998,-320.707336,0.788100,0,0,255
989.654175,-321.098511,0.788200,0,0,255
989.208435,-321.696747,0.788300,0,0,255
989.520813,-322.018860,0.788400,0,0,255
989.833130,-322.341003,0.788500,0,0,255
990.419312,-322.916260,0.788600,0,0,255
990.731628,-323.238373,0.788700,0,0,255
991.044067,-323.560516,0.788800,0,0,255
991.356323,-323.882660,0.788900,0,0,255
991.668762,-324.204773,0.789000,0,0,255
992.068848,-324.618958,0.789100,0,0,255
992.423401,-324.780029,0.789200,0,0,255
992.777832,-324.941071,0.789300,0,0,255
993.132385,-325.102142,0.789400,0,0,255
993.486877,-325.263245,0.789500,0,0,255
994.146667,-325.539337,0.789600,0,0,255
994.922363,-325.539337,0.789700,0,0,255
858.847961,-776.434814,0.789800,0,0,255
858.949768,-775.859558,0.789900,0,0,255
859.065552,-775.215271,0.790000,0,0,255
858.795288,-774.571045,0.790100,0,0,255
859.104187,-774.248901,0.790200,0,0,255
859.504272,-773.811707,0.790300,0,0,255
859.234009,-773.236450,0.790400,0,0,255
859.413086,-772.707214,0.790500,0,0,255
859.251587,-772.200989,0.790600,0,0,255
859.750000,-771.464722,0.790700,0,0,255
859.630676,-770.475281,0.790800,0,0,255
859.844727,-769.992126,0.790900,0,0,255
860.058838,-769.508911,0.791000,0,0,255
860.272949,-769.025757,0.791100,0,0,255
860.487061,-768.542480,0.791200,0,0,255
860.767822,-767.852234,0.791300,0,0,255
860.536194,-767.392029,0.791400,0,0,255
860.304504,-766.931824,0.791500,0,0,255
860.072876,-766.471680,0.791600,0,0,255
859.841248,-766.011475,0.791700,0,0,255
859.528870,-765.367188,0.791800,0,0,255
859.890381,-764.331787,0.791900,0,0,255
860.213318,-764.055603,0.792000,0,0,255
860.536194,-763.779541,0.792100,0,0,255
860.859070,-763.503418,0.792200,0,0,255
861.182007,-763.227295,0.792300,0,0,255
861.504883,-762.951172,0.792400,0,0,255
861.827759,-762.675110,0.792500,0,0,255
862.150696,-762.398926,0.792600,0,0,255
862.473572,-762.122803,0.792700,0,0,255
862.898254,-761.685669,0.792800,0,0,255
863.126404,-761.202515,0.792900,0,0,255
863.480896,-760.466125,0.793000,0,0,255
863.642334,-759.936890,0.793100,0,0,255
863.803772,-759.407715,0.793200,0,0,255
863.965271,-758.878479,0.793300,0,0,255
864.126709,-758.349304,0.793400,0,0,255
864.288147,-757.820068,0.793500,0,0,255
864.449585,-757.290833,0.793600,0,0,255
864.611023,-756.761597,0.793700,0,0,255
864.772522,-756.232361,0.793800,0,0,255
865.021729,-755.357971,0.793900,0,0,255
866.190430,-748.708252,0.794000,0,0,255
866.190430,-748.708252,0.794100,0,0,255
866.330872,-747.603821,0.794200,0,0,255
866.330872,-747.603821,0.794300,0,0,255
866.355408,-747.005554,0.794400,0,0,255
866.379944,-746.407288,0.794500,0,0,255
866.404541,-745.809021,0.794600,0,0,255
866.429077,-745.210815,0.794700,0,0,255
866.453735,-744.612549,0.794800,0,0,255
866.478271,-744.014282,0.794900,0,0,255
866.502808,-743.416077,0.795000,0,0,255
866.527405,-742.817810,0.795100,0,0,255
866.551941,-742.219604,0.795200,0,0,255
866.569519,-741.437256,0.795300,0,0,255
866.113220,-739.849548,0.795400,0,0,255
431.773804,-616.104187,0.795500,0,0,255
435.448517,-621.143188,0.795600,0,0,255
374.192261,-521.327759,0.795700,0,0,255
374.093964,-521.511841,0.795800,0,0,255
371.559906,-523.973816,0.795900,0,0,255
476.530579,-515.322266,0.796000,0,0,255
476.786774,-514.839050,0.796100,0,0,255
477.148315,-514.723999,0.796200,0,0,255
477.766022,-514.539917,0.796300,0,0,255
478.201233,-514.585938,0.796400,0,0,255
478.787354,-514.286804,0.796500,0,0,255
479.197998,-514.240784,0.796600,0,0,255
479.510406,-514.309814,0.796700,0,0,255
479.991211,-514.677979,0.796800,0,0,255
480.356262,-514.770020,0.796900,0,0,255
480.924805,-514.885071,0.797000,0,0,255
481.503937,-514.816040,0.797100,0,0,255
481.932098,-515.276245,0.797200,0,0,255
483.339569,-515.920471,0.797300,0,0,255
484.483734,-516.196594,0.797400,0,0,255
483.339569,-515.920471,0.797500,0,0,255
1203.828247,-763.572449,0.797600,0,0,255
1204.372314,-763.020203,0.797700,0,0,255
1204.372314,-763.020203,0.797800,0,0,255
1204.684692,-762.698059,0.797900,0,0,255
1204.997070,-762.375916,0.798000,0,0,255
1205.309326,-762.053833,0.798100,0,0,255
1205.621826,-761.731689,0.798200,0,0,255
1205.934082,-761.409485,0.798300,0,0,255
1206.246582,-761.087402,0.798400,0,0,255
1206.558960,-760.765259,0.798500,0,0,255
1207.011719,-760.328125,0.798600,0,0,255
1200.992432,-755.289001,0.798700,0,0,255
1418.300781,-535.294556,0.798800,0,0,255
1417.974365,-534.121033,0.798900,0,0,255
402.231934,-713.549683,0.799000,0,0,255
402.740845,-713.733704,0.799100,0,0,255
396.447815,-714.976196,0.799200,0,0,255
396.714539,-714.562073,0.799300,0,0,255
396.981293,-714.147888,0.799400,0,0,255
397.269073,-713.687744,0.799500,0,0,255
397.662201,-713.227539,0.799600,0,0,255
398.265869,-712.836365,0.799700,0,0,255
398.623871,-712.698303,0.799800,0,0,255
399.062561,-712.514221,0.799900,0,0,255
399.431091,-712.514221,0.800000,0,0,255
399.908447,-712.491211,0.800100,0,0,255
402.231934,-713.549683,0.800200,0,0,255
521.501404,-751.285278,0.800300,0,0,255
523.494995,-753.103088,0.800400,0,0,255
516.507080,-756.761597,0.800500,0,0,255
519.932556,-758.878479,0.800600,0,0,255
516.012146,-755.519104,0.800700,0,0,255
516.675537,-756.002319,0.800800,0,0,255
520.374817,-758.211182,0.800900,0,0,255
516.507080,-755.058899,0.801000,0,0,255
516.872070,-755.104919,0.801100,0,0,255
520.929321,-757.682007,0.801200,0,0,255
519.693909,-752.619873,0.801300,0,0,255
520.041382,-752.826965,0.801400,0,0,255
520.388855,-753.034058,0.801500,0,0,255
520.810059,-753.287170,0.801600,0,0,255
522.438599,-754.667725,0.801700,0,0,255
501.930878,-807.244568,0.801800,0,0,255
502.201141,-806.830383,0.801900,0,0,255
502.471375,-806.416199,0.802000,0,0,255
502.741638,-806.002075,0.802100,0,0,255
503.011902,-805.587952,0.802200,0,0,255
503.282135,-805.173767,0.802300,0,0,255
503.773499,-804.437378,0.802400,0,0,255
503.780548,-803.839172,0.802500,0,0,255
503.787567,-803.240967,0.802600,0,0,255
503.794556,-802.642700,0.802700,0,0,255
503.801605,-802.044434,0.802800,0,0,255
503.808624,-801.446167,0.802900,0,0,255
503.815674,-800.847961,0.803000,0,0,255
503.822662,-800.249695,0.803100,0,0,255
503.829681,-799.651428,0.803200,0,0,255
503.836731,-799.053162,0.803300,0,0,255
503.857788,-798.086792,0.803400,0,0,255
504.173645,-797.488525,0.803500,0,0,255
504.471985,-797.143433,0.803600,0,0,255
504.770264,-796.798279,0.803700,0,0,255
505.068634,-796.453064,0.803800,0,0,255
505.366974,-796.107971,0.803900,0,0,255
505.665314,-795.762817,0.804000,0,0,255
505.963623,-795.417725,0.804100,0,0,255
506.261963,-795.072571,0.804200,0,0,255
506.560303,-794.727356,0.804300,0,0,255
506.858643,-794.382263,0.804400,0,0,255
507.156952,-794.037109,0.804500,0,0,255
507.455292,-793.691956,0.804600,0,0,255
507.753632,-793.346802,0.804700,0,0,255
508.051941,-793.001648,0.804800,0,0,255
508.350281,-792.656555,0.804900,0,0,255
508.648621,-792.311401,0.805000,0,0,255
508.946960,-791.966248,0.805100,0,0,255
509.245270,-791.621094,0.805200,0,0,255
509.543610,-791.275940,0.805300,0,0,255
509.841949,-790.930847,0.805400,0,0,255
510.140259,-790.585693,0.805500,0,0,255
510.438599,-790.240540,0.805600,0,0,255
510.736938,-789.895386,0.805700,0,0,255
511.035278,-789.550232,0.805800,0,0,255
511.333588,-789.205078,0.805900,0,0,255
511.631927,-788.859985,0.806000,0,0,255
511.930267,-788.514771,0.806100,0,0,255
512.228638,-788.169678,0.806200,0,0,255
512.526917,-787.824524,0.806300,0,0,255
512.825256,-787.479370,0.806400,0,0,255
513.123596,-787.134277,0.806500,0,0,255
513.421875,-786.789062,0.806600,0,0,255
513.720215,-786.443909,0.806700,0,0,255
514.018616,-786.098816,0.806800,0,0,255
514.359070,-785.615601,0.806900,0,0,255
515.464600,-784.096924,0.807000,0,0,255
426.702148,-364.954742,0.807100,0,0,255
427.063660,-365.046753,0.807200,0,0,255
427.519928,-365.184814,0.807300,0,0,255
427.846313,-365.714050,0.807400,0,0,255
428.084991,-365.852112,0.807500,0,0,255
428.797516,-365.575958,0.807600,0,0,255
429.151978,-365.598969,0.807700,0,0,255
429.436279,-365.875122,0.807800,0,0,255
429.625793,-366.404327,0.807900,0,0,255
429.959229,-367.370728,0.808000,0,0,255
429.853943,-367.968964,0.808100,0,0,255
429.566132,-368.337128,0.808200,0,0,255
429.278320,-368.705261,0.808300,0,0,255
428.990540,-369.073425,0.808400,0,0,255
428.702728,-369.441589,0.808500,0,0,255
428.323669,-369.993835,0.808600,0,0,255
428.295593,-370.546051,0.808700,0,0,255
428.551788,-370.983246,0.808800,0,0,255
428.895782,-371.558472,0.808900,0,0,255
429.018616,-372.133728,0.809000,0,0,255
429.243225,-373.192139,0.809100,0,0,255
429.506470,-373.606323,0.809200,0,0,255
429.857452,-374.181549,0.809300,0,0,255
429.801300,-374.779785,0.809400,0,0,255
429.717072,-375.631165,0.809500,0,0,255
429.899567,-376.712585,0.809600,0,0,255
429.899567,-376.712585,0.809700,0,0,255
429.920624,-377.126770,0.809800,0,0,255
423.525787,-348.502899,0.809900,0,0,255
426.547699,-349.423279,0.810000,0,0,255
421.591888,-326.114563,0.810100,0,0,255
421.953430,-322.202942,0.810200,0,0,255
423.266052,-402.943512,0.810300,0,0,255
423.167786,-403.610809,0.810400,0,0,255
431.661469,-347.628510,0.810500,0,0,255
431.310516,-347.444427,0.810600,0,0,255
430.959534,-347.260376,0.810700,0,0,255
430.608521,-347.076294,0.810800,0,0,255
430.257568,-346.892212,0.810900,0,0,255
429.906586,-346.708130,0.811000,0,0,255
429.555603,-346.524078,0.811100,0,0,255
428.976501,-346.293976,0.811200,0,0,255
428.007812,-345.787781,0.811300,0,0,255
429.271301,-349.377228,0.811400,0,0,255
428.720276,-348.917084,0.811500,0,0,255
427.383057,-348.502899,0.811600,0,0,255
411.760986,-320.178131,0.811700,0,0,255
412.126007,-320.247131,0.811800,0,0,255
412.491028,-320.316162,0.811900,0,0,255
412.856049,-320.385193,0.812000,0,0,255
413.221069,-320.454224,0.812100,0,0,255
413.586060,-320.523254,0.812200,0,0,255
413.951111,-320.592255,0.812300,0,0,255
414.316132,-320.661316,0.812400,0,0,255
414.681122,-320.730347,0.812500,0,0,255
415.046143,-320.799347,0.812600,0,0,255
415.411163,-320.868408,0.812700,0,0,255
415.776184,-320.937439,0.812800,0,0,255
416.141205,-321.006439,0.812900,0,0,255
416.506226,-321.075470,0.813000,0,0,255
416.871246,-321.144531,0.813100,0,0,255
417.236267,-321.213531,0.813200,0,0,255
417.601288,-321.282562,0.813300,0,0,255
417.966309,-321.351624,0.813400,0,0,255
418.331299,-321.420624,0.813500,0,0,255
418.696320,-321.489655,0.813600,0,0,255
419.061340,-321.558655,0.813700,0,0,255
419.440399,-321.765747,0.813800,0,0,255
419.805420,-321.834808,0.813900,0,0,255
420.170441,-321.903839,0.814000,0,0,255
420.535461,-321.972839,0.814100,0,0,255
420.900482,-322.041870,0.814200,0,0,255
421.265503,-322.110931,0.814300,0,0,255
421.953430,-322.202942,0.814400,0,0,255
422.262268,-322.248962,0.814500,0,0,255
425.087646,-316.864716,0.814600,0,0,255
429.920624,-377.126770,0.814700,0,0,255
430.029419,-377.701996,0.814800,0,0,255
430.166290,-378.438354,0.814900,0,0,255
430.362854,-378.944550,0.815000,0,0,255
430.559418,-379.450745,0.815100,0,0,255
430.755951,-379.956970,0.815200,0,0,255
431.036743,-380.693268,0.815300,0,0,255
430.878784,-381.245483,0.815400,0,0,255
430.720856,-381.797699,0.815500,0,0,255
430.562927,-382.349976,0.815600,0,0,255
430.404968,-382.902191,0.815700,0,0,255
430.247040,-383.454407,0.815800,0,0,255
430.089081,-384.006653,0.815900,0,0,255
429.931152,-384.558868,0.816000,0,0,255
429.773193,-385.111084,0.816100,0,0,255
429.615265,-385.663330,0.816200,0,0,255
429.457336,-386.215576,0.816300,0,0,255
429.299377,-386.767792,0.816400,0,0,255
429.008087,-387.757202,0.816500,0,0,255
428.769409,-388.217407,0.816600,0,0,255
428.530731,-388.677582,0.816700,0,0,255
428.292084,-389.137787,0.816800,0,0,255
428.053406,-389.597992,0.816900,0,0,255
427.814728,-390.058167,0.817000,0,0,255
427.576080,-390.518372,0.817100,0,0,255
427.337402,-390.978516,0.817200,0,0,255
427.098755,-391.438721,0.817300,0,0,255
426.860107,-391.898926,0.817400,0,0,255
426.621429,-392.359100,0.817500,0,0,255
426.382782,-392.819305,0.817600,0,0,255
426.144104,-393.279510,0.817700,0,0,255
425.905426,-393.739685,0.817800,0,0,255
425.666779,-394.199890,0.817900,0,0,255
425.340363,-394.729095,0.818000,0,0,255
423.266052,-402.943512,0.818100,0,0,255
1304.987305,-614.976685,0.818200,0,0,255
1305.341797,-597.351318,0.818300,0,0,255
1310.989014,-620.176880,0.818400,0,0,255
1310.620483,-620.176880,0.818500,0,0,255
1310.252075,-620.176880,0.818600,0,0,255
1309.883423,-620.176880,0.818700,0,0,255
1309.514893,-620.176880,0.818800,0,0,255
1309.146484,-620.176880,0.818900,0,0,255
1308.777954,-620.176880,0.819000,0,0,255
1308.409302,-620.176880,0.819100,0,0,255
1308.040771,-620.176880,0.819200,0,0,255
1307.416016,-620.222900,0.819300,0,0,255
1307.051147,-620.176880,0.819400,0,0,255
1306.675537,-620.107788,0.819500,0,0,255
1306.370239,-619.900696,0.819600,0,0,255
1306.152588,-619.693604,0.819700,0,0,255
1306.019165,-619.141418,0.819800,0,0,255
1305.885742,-618.589172,0.819900,0,0,255
1305.752441,-618.036987,0.820000,0,0,255
1305.520874,-617.047546,0.820100,0,0,255
1304.987305,-614.976685,0.820200,0,0,255
1319.837280,-620.107788,0.820300,0,0,255
1310.989014,-620.176880,0.820400,0,0,255
1337.687988,-620.636963,0.820500,0,0,255
1337.319458,-620.660034,0.820600,0,0,255
1336.592896,-620.706055,0.820700,0,0,255
1336.217407,-620.775085,0.820800,0,0,255
1335.578613,-621.028198,0.820900,0,0,255
1335.220703,-621.166260,0.821000,0,0,255
1334.806519,-621.304260,0.821100,0,0,255
1334.444946,-621.419312,0.821200,0,0,255
1333.929077,-621.603394,0.821300,0,0,255
1333.314697,-621.695496,0.821400,0,0,255
1332.946289,-621.672424,0.821500,0,0,255
1332.577759,-621.649475,0.821600,0,0,255
1332.209229,-621.626404,0.821700,0,0,255
1331.840576,-621.603394,0.821800,0,0,255
1331.472168,-621.580444,0.821900,0,0,255
1331.103638,-621.557373,0.822000,0,0,255
1330.735107,-621.534424,0.822100,0,0,255
1330.366455,-621.511353,0.822200,0,0,255
1329.998047,-621.488403,0.822300,0,0,255
1329.629517,-621.465332,0.822400,0,0,255
1329.260986,-621.442383,0.822500,0,0,255
1328.892578,-621.419312,0.822600,0,0,255
1328.523926,-621.396362,0.822700,0,0,255
1328.155396,-621.373352,0.822800,0,0,255
1327.786865,-621.350281,0.822900,0,0,255
1327.291992,-621.396362,0.823000,0,0,255
1326.923462,-621.350281,0.823100,0,0,255
1326.554932,-621.304260,0.823200,0,0,255
1326.186401,-621.258240,0.823300,0,0,255
1325.817993,-621.212219,0.823400,0,0,255
1325.449341,-621.166260,0.823500,0,0,255
1325.080811,-621.120239,0.823600,0,0,255
1324.712280,-621.074219,0.823700,0,0,255
1324.343872,-621.028198,0.823800,0,0,255
1323.943604,-621.051147,0.823900,0,0,255
1319.837280,-620.107788,0.824000,0,0,255
1339.169067,-620.061768,0.824100,0,0,255
1337.687988,-620.636963,0.824200,0,0,255
1360.115601,-623.145081,0.824300,0,0,255
1359.504761,-623.053040,0.824400,0,0,255
1359.150391,-622.891968,0.824500,0,0,255
1358.795776,-622.730896,0.824600,0,0,255
1358.441406,-622.569824,0.824700,0,0,255
1358.062256,-622.385742,0.824800,0,0,255
1357.711304,-622.201660,0.824900,0,0,255
1357.360352,-622.017578,0.825000,0,0,255
1357.009399,-621.833496,0.825100,0,0,255
1356.612793,-621.649475,0.825200,0,0,255
1356.268799,-621.419312,0.825300,0,0,255
1355.644043,-621.028198,0.825400,0,0,255
1355.293091,-620.844055,0.825500,0,0,255
1354.924561,-620.636963,0.825600,0,0,255
1354.489258,-620.406921,0.825700,0,0,255
1354.124390,-620.314880,0.825800,0,0,255
1353.759277,-620.222900,0.825900,0,0,255
1353.394287,-620.130798,0.826000,0,0,255
1353.029297,-620.038757,0.826100,0,0,255
1352.418579,-619.877686,0.826200,0,0,255
1352.053467,-619.785645,0.826300,0,0,255
1351.688599,-619.693604,0.826400,0,0,255
1351.123413,-619.555603,0.826500,0,0,255
1350.758423,-619.509583,0.826600,0,0,255
1350.393433,-619.463562,0.826700,0,0,255
1350.028320,-619.417480,0.826800,0,0,255
1349.603638,-619.348511,0.826900,0,0,255
1348.943848,-619.302490,0.827000,0,0,255
1348.361206,-619.118347,0.827100,0,0,255
1347.954102,-619.049377,0.827200,0,0,255
1347.441650,-619.026367,0.827300,0,0,255
1347.073120,-619.072327,0.827400,0,0,255
1346.704712,-619.118347,0.827500,0,0,255
1346.314941,-619.164368,0.827600,0,0,255
1345.946533,-619.210388,0.827700,0,0,255
1345.578003,-619.256470,0.827800,0,0,255
1345.111206,-619.279419,0.827900,0,0,255
1344.746094,-619.325439,0.828000,0,0,255
1344.381226,-619.371460,0.828100,0,0,255
1343.780884,-619.486511,0.828200,0,0,255
1343.416016,-619.555603,0.828300,0,0,255
1343.050903,-619.624573,0.828400,0,0,255
1342.685913,-619.693604,0.828500,0,0,255
1342.320923,-619.762695,0.828600,0,0,255
1341.955811,-619.831665,0.828700,0,0,255
1341.527710,-619.900696,0.828800,0,0,255
1341.159180,-619.946716,0.828900,0,0,255
1340.502808,-620.015808,0.829000,0,0,255
1340.134277,-620.038757,0.829100,0,0,255
1339.474365,-620.061768,0.829200,0,0,255
1339.169067,-620.061768,0.829300,0,0,255
1360.757812,-623.559204,0.829400,0,0,255
1360.571777,-623.352173,0.829500,0,0,255
1360.115601,-623.145081,0.829600,0,0,255
1380.777588,-636.375549,0.829700,0,0,255
1380.416138,-636.260498,0.829800,0,0,255
1380.054565,-636.145508,0.829900,0,0,255
1379.693115,-636.030457,0.830000,0,0,255
1379.331543,-635.915344,0.830100,0,0,255
1378.969971,-635.800293,0.830200,0,0,255
1378.608643,-635.685303,0.830300,0,0,255
1378.247070,-635.570251,0.830400,0,0,255
1377.885620,-635.455200,0.830500,0,0,255
1377.524048,-635.340088,0.830600,0,0,255
1376.857178,-635.248108,0.830700,0,0,255
1376.176270,-634.879944,0.830800,0,0,255
1375.853394,-634.580811,0.830900,0,0,255
1375.516479,-634.281677,0.831000,0,0,255
1375.200562,-633.982544,0.831100,0,0,255
1374.884766,-633.683472,0.831200,0,0,255
1374.568848,-633.384338,0.831300,0,0,255
1374.252930,-633.085205,0.831400,0,0,255
1373.800171,-632.601990,0.831500,0,0,255
1373.442139,-632.325928,0.831600,0,0,255
1373.066650,-632.210815,0.831700,0,0,255
1372.434937,-631.957764,0.831800,0,0,255
1372.080322,-631.796631,0.831900,0,0,255
1371.725952,-631.635559,0.832000,0,0,255
1371.371338,-631.474487,0.832100,0,0,255
1371.016968,-631.313416,0.832200,0,0,255
1370.662476,-631.152405,0.832300,0,0,255
1370.307861,-630.991333,0.832400,0,0,255
1369.953491,-630.830261,0.832500,0,0,255
1369.598877,-630.669189,0.832600,0,0,255
1369.244507,-630.508118,0.832700,0,0,255
1368.890015,-630.347107,0.832800,0,0,255
1368.535522,-630.186035,0.832900,0,0,255
1368.093262,-629.978943,0.833000,0,0,255
1367.538818,-629.633789,0.833100,0,0,255
1367.208862,-629.357666,0.833200,0,0,255
1366.840210,-629.058533,0.833300,0,0,255
1366.517334,-628.782410,0.833400,0,0,255
1366.166382,-628.460266,0.833500,0,0,255
1365.846924,-628.161133,0.833600,0,0,255
1365.527588,-627.862000,0.833700,0,0,255
1365.208130,-627.562866,0.833800,0,0,255
1364.888916,-627.263794,0.833900,0,0,255
1364.569458,-626.964661,0.834000,0,0,255
1364.250122,-626.665527,0.834100,0,0,255
1363.930664,-626.366394,0.834200,0,0,255
1363.611206,-626.067322,0.834300,0,0,255
1363.291870,-625.768188,0.834400,0,0,255
1362.972412,-625.468994,0.834500,0,0,255
1362.516113,-625.100891,0.834600,0,0,255
1362.080933,-624.686707,0.834700,0,0,255
1361.750977,-624.410583,0.834800,0,0,255
1361.340454,-624.088501,0.834900,0,0,255
1360.757812,-623.559204,0.835000,0,0,255
1381.132202,-636.490601,0.835100,0,0,255
1380.777588,-636.375549,0.835200,0,0,255
1388.604492,-639.573914,0.835300,0,0,255
1388.278076,-639.297729,0.835400,0,0,255
1387.727051,-638.837585,0.835500,0,0,255
1387.386597,-638.607483,0.835600,0,0,255
1386.909302,-638.285339,0.835700,0,0,255
1386.305542,-637.963257,0.835800,0,0,255
1385.944092,-637.848145,0.835900,0,0,255
1385.477295,-637.710144,0.836000,0,0,255
1385.115723,-637.618103,0.836100,0,0,255
1384.754272,-637.526001,0.836200,0,0,255
1384.392700,-637.434021,0.836300,0,0,255
1383.908447,-637.272888,0.836400,0,0,255
1381.132202,-636.490601,0.836500,0,0,255
1388.962402,-639.896057,0.836600,0,0,255
1388.604492,-639.573914,0.836700,0,0,255
1395.525757,-647.075012,0.836800,0,0,255
1395.206299,-646.775879,0.836900,0,0,255
1394.886963,-646.476746,0.837000,0,0,255
1394.567505,-646.177612,0.837100,0,0,255
1394.248169,-645.878479,0.837200,0,0,255
1393.837524,-645.464294,0.837300,0,0,255
1393.521606,-645.142212,0.837400,0,0,255
1392.939087,-644.566956,0.837500,0,0,255
1392.616089,-644.267883,0.837600,0,0,255
1392.293213,-643.968750,0.837700,0,0,255
1391.970337,-643.669617,0.837800,0,0,255
1391.594849,-643.347473,0.837900,0,0,255
1391.275391,-643.048340,0.838000,0,0,255
1390.689209,-642.496155,0.838100,0,0,255
1390.369873,-642.197021,0.838200,0,0,255
1389.917114,-641.759766,0.838300,0,0,255
1389.671387,-641.437622,0.838400,0,0,255
1389.562622,-641.069519,0.838500,0,0,255
1389.355591,-640.540283,0.838600,0,0,255
1388.962402,-639.896057,0.838700,0,0,255
1395.908325,-647.397156,0.838800,0,0,255
1395.525757,-647.075012,0.838900,0,0,255
1402.061035,-651.078674,0.839000,0,0,255
1401.709961,-650.894653,0.839100,0,0,255
1401.359009,-650.710510,0.839200,0,0,255
1401.008057,-650.526489,0.839300,0,0,255
1400.656982,-650.342346,0.839400,0,0,255
1400.306030,-650.158264,0.839500,0,0,255
1399.955078,-649.974243,0.839600,0,0,255
1399.604126,-649.790100,0.839700,0,0,255
1399.253052,-649.606079,0.839800,0,0,255
1398.902222,-649.421936,0.839900,0,0,255
1398.551270,-649.237915,0.840000,0,0,255
1398.151001,-649.076843,0.840100,0,0,255
1397.807129,-648.869751,0.840200,0,0,255
1397.399902,-648.616638,0.840300,0,0,255
1397.066528,-648.363525,0.840400,0,0,255
1396.490967,-647.926392,0.840500,0,0,255
1395.908325,-647.397156,0.840600,0,0,255
1402.355835,-651.216736,0.840700,0,0,255
1402.061035,-651.078674,0.840800,0,0,255
1406.848267,-653.632751,0.840900,0,0,255
1402.355835,-651.216736,0.841000,0,0,255
1407.093994,-653.770813,0.841100,0,0,255
1406.848267,-653.632751,0.841200,0,0,255
1415.868408,-655.841614,0.841300,0,0,255
1415.198120,-655.795654,0.841400,0,0,255
1414.478516,-655.933655,0.841500,0,0,255
1414.113525,-656.025757,0.841600,0,0,255
1413.748535,-656.117798,0.841700,0,0,255
1413.383545,-656.209839,0.841800,0,0,255
1413.018555,-656.301819,0.841900,0,0,255
1412.653564,-656.393860,0.842000,0,0,255
1412.228882,-656.531982,0.842100,0,0,255
1411.762085,-656.578003,0.842200,0,0,255
1411.330322,-656.416870,0.842300,0,0,255
1410.687988,-656.002747,0.842400,0,0,255
1407.093994,-653.770813,0.842500,0,0,255
1416.156250,-655.864685,0.842600,0,0,255
1415.868408,-655.841614,0.842700,0,0,255
1425.404541,-656.923096,0.842800,0,0,255
1416.156250,-655.864685,0.842900,0,0,255
1425.790649,-656.969116,0.843000,0,0,255
1425.404541,-656.923096,0.843100,0,0,255
1430.507812,-657.544373,0.843200,0,0,255
1425.790649,-656.969116,0.843300,0,0,255
1430.844727,-657.567383,0.843400,0,0,255
1430.507812,-657.544373,0.843500,0,0,255
1433.568359,-657.912476,0.843600,0,0,255
1430.844727,-657.567383,0.843700,0,0,255
1305.341797,-597.351318,0.843800,0,0,255
1305.731445,-596.868164,0.843900,0,0,255
1306.015625,-596.476929,0.844000,0,0,255
1306.299927,-596.085815,0.844100,0,0,255
1306.584351,-595.694641,0.844200,0,0,255
1306.917725,-595.280457,0.844300,0,0,255
1307.012451,-594.705200,0.844400,0,0,255
1307.149292,-593.853882,0.844500,0,0,255
1307.577515,-592.887451,0.844600,0,0,255
1307.903931,-592.611328,0.844700,0,0,255
1308.230347,-592.335266,0.844800,0,0,255
1308.767334,-591.875061,0.844900,0,0,255
1308.872681,-591.299805,0.845000,0,0,255
1308.978027,-590.724609,0.845100,0,0,255
1309.083252,-590.149353,0.845200,0,0,255
1309.188477,-589.574097,0.845300,0,0,255
1309.293823,-588.998901,0.845400,0,0,255
1309.413208,-588.308594,0.845500,0,0,255
1309.595703,-587.779297,0.845600,0,0,255
1309.778076,-587.250122,0.845700,0,0,255
1309.960693,-586.720886,0.845800,0,0,255
1310.143188,-586.191711,0.845900,0,0,255
1310.325684,-585.662476,0.846000,0,0,255
1310.508179,-585.133301,0.846100,0,0,255
1310.690674,-584.604065,0.846200,0,0,255
1310.883789,-584.051819,0.846300,0,0,255
1311.210083,-583.775696,0.846400,0,0,255
1311.536499,-583.499573,0.846500,0,0,255
1311.863037,-583.223450,0.846600,0,0,255
1312.336792,-582.786316,0.846700,0,0,255
1312.256104,-580.692444,0.846800,0,0,255
551.818970,-745.118774,0.846900,0,0,255
552.429688,-743.853271,0.847000,0,0,255
552.429688,-743.853271,0.847100,0,0,255
552.563049,-743.508057,0.847200,0,0,255
552.812256,-742.978882,0.847300,0,0,255
552.829773,-742.955872,0.847400,0,0,255
553.075500,-742.426697,0.847500,0,0,255
552.812256,-742.978882,0.847600,0,0,255
552.829773,-742.955872,0.847700,0,0,255
693.340515,-798.408936,0.847800,0,0,255
693.635376,-798.040771,0.847900,0,0,255
693.965271,-797.649597,0.848000,0,0,255
694.179382,-797.166382,0.848100,0,0,255
694.554932,-796.292053,0.848200,0,0,255
694.691772,-795.739807,0.848300,0,0,255
694.853271,-795.072571,0.848400,0,0,255
694.814636,-794.474243,0.848500,0,0,255
694.765503,-793.714966,0.848600,0,0,255
694.460144,-792.587463,0.848700,0,0,255
698.289368,-801.653259,0.848800,0,0,255
698.650818,-801.538208,0.848900,0,0,255
699.012329,-801.423218,0.849000,0,0,255
699.433533,-801.285095,0.849100,0,0,255
700.528564,-800.525757,0.849200,0,0,255
697.794434,-801.814331,0.849300,0,0,255
698.289368,-801.653259,0.849400,0,0,255
700.872498,-800.318726,0.849500,0,0,255
701.227051,-800.157593,0.849600,0,0,255
701.581543,-799.996582,0.849700,0,0,255
701.936035,-799.835510,0.849800,0,0,255
702.290527,-799.674438,0.849900,0,0,255
702.760803,-799.398315,0.850000,0,0,255
703.736511,-798.662048,0.850100,0,0,255
700.528564,-800.525757,0.850200,0,0,255
700.872498,-800.318726,0.850300,0,0,255
692.621033,-800.410767,0.850400,0,0,255
