X,Y,Z,R,G,B
373.542938,-333.339569,0.097300,0,0,255
373.556976,-332.741333,0.097400,0,0,255
373.571014,-332.143066,0.097500,0,0,255
373.585052,-331.544830,0.097600,0,0,255
373.599091,-330.946564,0.097700,0,0,255
373.613159,-330.348358,0.097800,0,0,255
373.627167,-329.750092,0.097900,0,0,255
373.641205,-329.151855,0.098000,0,0,255
373.655273,-328.553589,0.098100,0,0,255
373.669281,-327.955353,0.098200,0,0,255
373.683319,-327.357086,0.098300,0,0,255
373.697388,-326.758850,0.098400,0,0,255
373.711426,-326.160583,0.098500,0,0,255
373.725433,-325.562347,0.098600,0,0,255
373.739502,-324.964081,0.098700,0,0,255
373.753540,-324.365845,0.098800,0,0,255
373.767548,-323.767609,0.098900,0,0,255
373.781616,-323.169342,0.099000,0,0,255
373.795654,-322.571106,0.099100,0,0,255
373.809662,-321.972839,0.099200,0,0,255
373.823730,-321.374603,0.099300,0,0,255
373.837769,-320.776337,0.099400,0,0,255
373.851807,-320.178131,0.099500,0,0,255
373.865845,-319.579865,0.099600,0,0,255
373.879883,-318.981628,0.099700,0,0,255
373.893921,-318.383362,0.099800,0,0,255
373.907959,-317.785126,0.099900,0,0,255
373.921997,-317.186859,0.100000,0,0,255
373.974640,-316.151428,0.100100,0,0,255
374.374756,-302.437714,0.100200,0,0,255
455.805298,-634.534790,0.100300,0,0,255
455.422729,-633.982544,0.100400,0,0,255
455.334991,-633.890564,0.100500,0,0,255
455.040161,-633.522400,0.100600,0,0,255
454.745331,-633.154175,0.100700,0,0,255
454.450531,-632.786072,0.100800,0,0,255
454.155701,-632.417908,0.100900,0,0,255
453.860870,-632.049744,0.101000,0,0,255
453.566040,-631.681580,0.101100,0,0,255
453.169434,-631.198425,0.101200,0,0,255
452.632446,-630.439087,0.101300,0,0,255
649.503296,-277.104218,0.101400,0,0,255
649.471741,-277.702454,0.101500,0,0,255
649.440125,-278.300720,0.101600,0,0,255
649.408569,-278.898956,0.101700,0,0,255
649.376953,-279.497223,0.101800,0,0,255
649.345398,-280.095459,0.101900,0,0,255
649.313782,-280.693665,0.102000,0,0,255
649.282227,-281.291931,0.102100,0,0,255
649.250610,-281.890167,0.102200,0,0,255
649.219055,-282.488434,0.102300,0,0,255
649.187439,-283.086670,0.102400,0,0,255
649.155884,-283.684937,0.102500,0,0,255
649.124268,-284.283173,0.102600,0,0,255
649.092712,-284.881439,0.102700,0,0,255
649.061096,-285.479675,0.102800,0,0,255
649.029541,-286.077942,0.102900,0,0,255
648.997925,-286.676178,0.103000,0,0,255
648.966370,-287.274445,0.103100,0,0,255
648.934692,-287.872681,0.103200,0,0,255
648.903137,-288.470947,0.103300,0,0,255
648.871521,-289.069183,0.103400,0,0,255
648.839966,-289.667450,0.103500,0,0,255
648.808350,-290.265686,0.103600,0,0,255
648.776794,-290.863892,0.103700,0,0,255
648.745178,-291.462158,0.103800,0,0,255
648.713623,-292.060394,0.103900,0,0,255
648.682007,-292.658661,0.104000,0,0,255
648.650452,-293.256897,0.104100,0,0,255
648.618835,-293.855164,0.104200,0,0,255
648.587280,-294.453400,0.104300,0,0,255
648.555664,-295.051666,0.104400,0,0,255
648.524109,-295.649902,0.104500,0,0,255
648.492493,-296.248169,0.104600,0,0,255
648.460938,-296.846405,0.104700,0,0,255
648.429321,-297.444672,0.104800,0,0,255
648.397766,-298.042908,0.104900,0,0,255
648.366150,-298.641174,0.105000,0,0,255
648.334595,-299.239410,0.105100,0,0,255
648.302979,-299.837677,0.105200,0,0,255
648.271423,-300.435913,0.105300,0,0,255
648.239807,-301.034149,0.105400,0,0,255
648.229309,-301.724426,0.105500,0,0,255
648.116943,-302.299683,0.105600,0,0,255
648.004639,-302.874908,0.105700,0,0,255
647.892334,-303.450165,0.105800,0,0,255
647.780029,-304.025391,0.105900,0,0,255
647.667664,-304.600616,0.106000,0,0,255
647.555420,-305.175873,0.106100,0,0,255
647.443115,-305.751099,0.106200,0,0,255
647.330750,-306.326324,0.106300,0,0,255
647.218445,-306.901581,0.106400,0,0,255
647.106140,-307.476807,0.106500,0,0,255
646.993835,-308.052094,0.106600,0,0,255
646.881531,-308.627319,0.106700,0,0,255
646.769226,-309.202545,0.106800,0,0,255
646.656860,-309.777802,0.106900,0,0,255
646.544556,-310.353027,0.107000,0,0,255
646.432312,-310.928253,0.107100,0,0,255
646.319946,-311.503510,0.107200,0,0,255
646.207642,-312.078735,0.107300,0,0,255
646.095337,-312.653992,0.107400,0,0,255
645.982971,-313.229218,0.107500,0,0,255
645.870667,-313.804443,0.107600,0,0,255
645.758423,-314.379700,0.107700,0,0,255
645.646057,-314.954926,0.107800,0,0,255
645.533752,-315.530151,0.107900,0,0,255
645.421448,-316.105408,0.108000,0,0,255
645.309082,-316.680634,0.108100,0,0,255
645.196838,-317.255890,0.108200,0,0,255
645.084534,-317.831146,0.108300,0,0,255
644.972168,-318.406372,0.108400,0,0,255
644.859863,-318.981628,0.108500,0,0,255
644.747559,-319.556854,0.108600,0,0,255
644.635254,-320.132111,0.108700,0,0,255
644.522949,-320.707336,0.108800,0,0,255
644.410645,-321.282562,0.108900,0,0,255
644.298279,-321.857819,0.109000,0,0,255
644.185974,-322.433044,0.109100,0,0,255
644.073669,-323.008270,0.109200,0,0,255
643.961365,-323.583527,0.109300,0,0,255
643.849060,-324.158752,0.109400,0,0,255
643.736755,-324.734009,0.109500,0,0,255
643.624390,-325.309235,0.109600,0,0,255
643.512085,-325.884460,0.109700,0,0,255
643.399841,-326.459717,0.109800,0,0,255
643.287476,-327.034943,0.109900,0,0,255
643.175171,-327.610199,0.110000,0,0,255
643.062866,-328.185455,0.110100,0,0,255
642.950562,-328.760681,0.110200,0,0,255
642.838196,-329.335938,0.110300,0,0,255
642.725952,-329.911163,0.110400,0,0,255
642.613647,-330.486389,0.110500,0,0,255
642.501282,-331.061646,0.110600,0,0,255
642.388977,-331.636871,0.110700,0,0,255
642.276672,-332.212097,0.110800,0,0,255
642.164368,-332.787354,0.110900,0,0,255
642.052063,-333.362579,0.111000,0,0,255
641.939758,-333.937836,0.111100,0,0,255
641.827393,-334.513062,0.111200,0,0,255
641.715088,-335.088287,0.111300,0,0,255
641.602844,-335.663544,0.111400,0,0,255
641.490479,-336.238770,0.111500,0,0,255
641.378174,-336.813995,0.111600,0,0,255
641.150024,-337.389282,0.111700,0,0,255
640.914856,-337.849457,0.111800,0,0,255
640.679749,-338.309662,0.111900,0,0,255
640.444580,-338.769836,0.112000,0,0,255
640.209412,-339.230011,0.112100,0,0,255
639.974243,-339.690216,0.112200,0,0,255
639.577698,-340.495575,0.112300,0,0,255
639.338989,-340.955750,0.112400,0,0,255
639.100342,-341.415955,0.112500,0,0,255
638.861694,-341.876129,0.112600,0,0,255
638.622986,-342.336304,0.112700,0,0,255
638.384338,-342.796509,0.112800,0,0,255
638.145691,-343.256714,0.112900,0,0,255
637.906982,-343.716888,0.113000,0,0,255
637.668335,-344.177094,0.113100,0,0,255
637.429688,-344.637268,0.113200,0,0,255
637.191040,-345.097473,0.113300,0,0,255
636.952332,-345.557678,0.113400,0,0,255
636.713684,-346.017822,0.113500,0,0,255
636.475037,-346.478027,0.113600,0,0,255
636.236328,-346.938232,0.113700,0,0,255
635.997681,-347.398407,0.113800,0,0,255
635.759033,-347.858612,0.113900,0,0,255
635.520325,-348.318817,0.114000,0,0,255
635.281677,-348.778992,0.114100,0,0,255
635.043030,-349.239197,0.114200,0,0,255
634.804321,-349.699402,0.114300,0,0,255
634.565674,-350.159576,0.114400,0,0,255
634.327026,-350.619781,0.114500,0,0,255
634.088318,-351.079956,0.114600,0,0,255
633.849670,-351.540131,0.114700,0,0,255
633.611023,-352.000336,0.114800,0,0,255
633.372314,-352.460510,0.114900,0,0,255
633.133667,-352.920715,0.115000,0,0,255
632.895020,-353.380920,0.115100,0,0,255
632.656372,-353.841095,0.115200,0,0,255
632.417664,-354.301300,0.115300,0,0,255
632.179016,-354.761505,0.115400,0,0,255
631.940369,-355.221680,0.115500,0,0,255
631.701660,-355.681854,0.115600,0,0,255
631.463013,-356.142059,0.115700,0,0,255
631.224365,-356.602234,0.115800,0,0,255
630.985657,-357.062439,0.115900,0,0,255
630.747009,-357.522644,0.116000,0,0,255
630.508362,-357.982819,0.116100,0,0,255
630.273254,-358.604095,0.116200,0,0,255
629.992432,-358.995239,0.116300,0,0,255
629.711670,-359.386414,0.116400,0,0,255
629.430908,-359.777557,0.116500,0,0,255
629.150024,-360.168732,0.116600,0,0,255
628.869263,-360.559906,0.116700,0,0,255
628.588501,-360.951050,0.116800,0,0,255
628.307678,-361.342224,0.116900,0,0,255
628.026917,-361.733368,0.117000,0,0,255
627.746155,-362.124542,0.117100,0,0,255
627.465332,-362.515717,0.117200,0,0,255
627.184570,-362.906860,0.117300,0,0,255
626.903809,-363.298035,0.117400,0,0,255
626.623047,-363.689209,0.117500,0,0,255
626.342224,-364.080353,0.117600,0,0,255
626.061462,-364.471527,0.117700,0,0,255
625.780701,-364.862671,0.117800,0,0,255
625.499878,-365.322876,0.117900,0,0,255
625.187500,-365.645020,0.118000,0,0,255
624.875183,-365.967133,0.118100,0,0,255
624.562805,-366.289276,0.118200,0,0,255
624.250427,-366.611420,0.118300,0,0,255
623.938049,-366.933533,0.118400,0,0,255
623.625671,-367.255676,0.118500,0,0,255
623.313293,-367.577820,0.118600,0,0,255
623.000916,-367.899933,0.118700,0,0,255
622.688538,-368.222076,0.118800,0,0,255
622.376160,-368.544220,0.118900,0,0,255
622.063782,-368.866364,0.119000,0,0,255
621.751465,-369.188477,0.119100,0,0,255
621.253052,-369.671661,0.119200,0,0,255
620.923096,-369.947784,0.119300,0,0,255
620.593262,-370.223938,0.119400,0,0,255
620.263306,-370.500031,0.119500,0,0,255
619.933350,-370.776154,0.119600,0,0,255
619.603455,-371.052246,0.119700,0,0,255
619.273560,-371.328369,0.119800,0,0,255
618.943604,-371.604492,0.119900,0,0,255
618.613708,-371.880585,0.120000,0,0,255
618.283752,-372.156738,0.120100,0,0,255
617.809998,-372.501862,0.120200,0,0,255
617.465942,-372.731964,0.120300,0,0,255
617.122009,-372.962067,0.120400,0,0,255
616.778076,-373.192139,0.120500,0,0,255
616.434143,-373.422241,0.120600,0,0,255
615.890137,-373.744385,0.120700,0,0,255
615.528625,-373.859436,0.120800,0,0,255
615.167114,-373.974457,0.120900,0,0,255
614.805542,-374.089539,0.121000,0,0,255
614.135254,-374.342651,0.121100,0,0,255
613.770203,-374.411652,0.121200,0,0,255
613.405151,-374.480682,0.121300,0,0,255
613.040161,-374.549683,0.121400,0,0,255
612.675110,-374.618744,0.121500,0,0,255
612.022278,-374.779785,0.121600,0,0,255
611.653809,-374.779785,0.121700,0,0,255
611.285278,-374.779785,0.121800,0,0,255
610.916748,-374.779785,0.121900,0,0,255
610.548218,-374.779785,0.122000,0,0,255
610.179688,-374.779785,0.122100,0,0,255
609.811157,-374.779785,0.122200,0,0,255
609.442627,-374.779785,0.122300,0,0,255
609.074097,-374.779785,0.122400,0,0,255
608.705566,-374.779785,0.122500,0,0,255
608.337036,-374.779785,0.122600,0,0,255
607.968506,-374.779785,0.122700,0,0,255
607.600037,-374.779785,0.122800,0,0,255
607.231445,-374.779785,0.122900,0,0,255
606.862976,-374.779785,0.123000,0,0,255
606.494385,-374.779785,0.123100,0,0,255
606.125916,-374.779785,0.123200,0,0,255
605.757324,-374.779785,0.123300,0,0,255
605.388855,-374.779785,0.123400,0,0,255
605.020264,-374.779785,0.123500,0,0,255
604.651794,-374.779785,0.123600,0,0,255
604.283264,-374.779785,0.123700,0,0,255
603.914734,-374.779785,0.123800,0,0,255
603.546204,-374.779785,0.123900,0,0,255
603.177673,-374.779785,0.124000,0,0,255
602.809143,-374.779785,0.124100,0,0,255
602.440613,-374.779785,0.124200,0,0,255
602.072083,-374.779785,0.124300,0,0,255
601.703552,-374.779785,0.124400,0,0,255
601.335022,-374.779785,0.124500,0,0,255
600.966492,-374.779785,0.124600,0,0,255
600.597961,-374.779785,0.124700,0,0,255
600.229431,-374.779785,0.124800,0,0,255
599.860901,-374.779785,0.124900,0,0,255
599.492371,-374.779785,0.125000,0,0,255
599.123840,-374.779785,0.125100,0,0,255
598.755371,-374.779785,0.125200,0,0,255
598.386780,-374.779785,0.125300,0,0,255
598.018311,-374.779785,0.125400,0,0,255
597.649719,-374.779785,0.125500,0,0,255
597.281250,-374.779785,0.125600,0,0,255
596.912659,-374.779785,0.125700,0,0,255
596.347595,-375.009888,0.125800,0,0,255
595.979126,-374.986877,0.125900,0,0,255
595.610535,-374.963867,0.126000,0,0,255
595.242065,-374.940857,0.126100,0,0,255
594.873535,-374.917877,0.126200,0,0,255
594.505005,-374.894867,0.126300,0,0,255
594.136475,-374.871857,0.126400,0,0,255
593.767944,-374.848846,0.126500,0,0,255
593.399414,-374.825836,0.126600,0,0,255
593.030884,-374.802826,0.126700,0,0,255
592.662354,-374.779785,0.126800,0,0,255
592.293823,-374.756775,0.126900,0,0,255
591.925293,-374.733795,0.127000,0,0,255
591.556763,-374.710785,0.127100,0,0,255
591.188232,-374.687775,0.127200,0,0,255
590.819702,-374.664764,0.127300,0,0,255
590.451172,-374.641754,0.127400,0,0,255
590.082642,-374.618744,0.127500,0,0,255
589.622925,-374.618744,0.127600,0,0,255
589.254333,-374.641754,0.127700,0,0,255
588.885864,-374.664764,0.127800,0,0,255
588.517273,-374.687775,0.127900,0,0,255
588.148804,-374.710785,0.128000,0,0,255
587.780212,-374.733795,0.128100,0,0,255
587.411743,-374.756775,0.128200,0,0,255
587.043152,-374.779785,0.128300,0,0,255
586.674683,-374.802826,0.128400,0,0,255
586.306091,-374.825836,0.128500,0,0,255
585.937622,-374.848846,0.128600,0,0,255
585.569031,-374.871857,0.128700,0,0,255
585.200562,-374.894867,0.128800,0,0,255
584.832031,-374.917877,0.128900,0,0,255
584.463501,-374.940857,0.129000,0,0,255
584.094971,-374.963867,0.129100,0,0,255
583.726440,-374.986877,0.129200,0,0,255
583.357910,-375.009888,0.129300,0,0,255
582.989380,-375.032898,0.129400,0,0,255
582.620850,-375.055939,0.129500,0,0,255
582.252319,-375.078949,0.129600,0,0,255
581.883789,-375.101959,0.129700,0,0,255
581.483704,-375.055939,0.129800,0,0,255
581.115112,-375.055939,0.129900,0,0,255
580.746643,-375.055939,0.130000,0,0,255
580.378052,-375.055939,0.130100,0,0,255
580.009583,-375.055939,0.130200,0,0,255
579.640991,-375.055939,0.130300,0,0,255
579.272522,-375.055939,0.130400,0,0,255
578.903931,-375.055939,0.130500,0,0,255
578.535461,-375.055939,0.130600,0,0,255
578.166992,-375.055939,0.130700,0,0,255
577.798401,-375.055939,0.130800,0,0,255
577.429932,-375.055939,0.130900,0,0,255
577.061340,-375.055939,0.131000,0,0,255
576.692871,-375.055939,0.131100,0,0,255
576.324280,-375.055939,0.131200,0,0,255
575.955811,-375.055939,0.131300,0,0,255
575.587219,-375.055939,0.131400,0,0,255
575.218750,-375.055939,0.131500,0,0,255
574.850159,-375.055939,0.131600,0,0,255
574.481689,-375.055939,0.131700,0,0,255
574.113098,-375.055939,0.131800,0,0,255
573.744629,-375.055939,0.131900,0,0,255
573.376038,-375.055939,0.132000,0,0,255
573.007568,-375.055939,0.132100,0,0,255
572.639038,-375.055939,0.132200,0,0,255
572.270508,-375.055939,0.132300,0,0,255
571.901978,-375.055939,0.132400,0,0,255
571.533447,-375.055939,0.132500,0,0,255
571.164917,-375.055939,0.132600,0,0,255
570.498047,-374.871857,0.132700,0,0,255
570.133057,-374.940857,0.132800,0,0,255
569.768005,-375.009888,0.132900,0,0,255
569.403015,-375.078949,0.133000,0,0,255
569.038025,-375.147949,0.133100,0,0,255
568.672974,-375.216980,0.133200,0,0,255
568.307922,-375.286041,0.133300,0,0,255
567.942932,-375.355042,0.133400,0,0,255
567.577942,-375.424072,0.133500,0,0,255
567.212891,-375.493103,0.133600,0,0,255
566.847900,-375.562134,0.133700,0,0,255
566.482910,-375.631165,0.133800,0,0,255
566.117798,-375.700195,0.133900,0,0,255
565.752808,-375.769226,0.134000,0,0,255
565.387817,-375.838257,0.134100,0,0,255
565.022766,-375.907288,0.134200,0,0,255
564.657776,-375.976288,0.134300,0,0,255
564.292786,-376.045349,0.134400,0,0,255
563.927734,-376.114349,0.134500,0,0,255
563.562683,-376.183380,0.134600,0,0,255
563.197693,-376.252441,0.134700,0,0,255
562.832703,-376.321442,0.134800,0,0,255
562.467651,-376.390472,0.134900,0,0,255
562.095642,-376.367462,0.135000,0,0,255
561.741150,-376.528534,0.135100,0,0,255
561.386658,-376.689606,0.135200,0,0,255
561.032166,-376.850677,0.135300,0,0,255
560.677673,-377.011749,0.135400,0,0,255
560.323181,-377.172791,0.135500,0,0,255
559.642273,-377.471954,0.135600,0,0,255
559.308899,-377.725037,0.135700,0,0,255
558.975464,-377.978149,0.135800,0,0,255
558.642029,-378.231262,0.135900,0,0,255
558.308533,-378.484344,0.136000,0,0,255
557.975098,-378.737457,0.136100,0,0,255
557.641724,-378.990570,0.136200,0,0,255
557.308289,-379.243652,0.136300,0,0,255
556.974854,-379.496765,0.136400,0,0,255
556.641418,-379.749878,0.136500,0,0,255
556.307983,-380.002991,0.136600,0,0,255
555.974609,-380.256073,0.136700,0,0,255
555.641174,-380.509186,0.136800,0,0,255
555.307678,-380.762299,0.136900,0,0,255
554.974243,-381.015381,0.137000,0,0,255
554.640808,-381.268494,0.137100,0,0,255
554.307373,-381.521606,0.137200,0,0,255
553.973999,-381.774719,0.137300,0,0,255
553.640564,-382.027802,0.137400,0,0,255
553.307129,-382.280914,0.137500,0,0,255
552.973694,-382.534058,0.137600,0,0,255
552.640259,-382.787140,0.137700,0,0,255
552.306885,-383.040253,0.137800,0,0,255
551.973389,-383.293365,0.137900,0,0,255
551.639954,-383.546448,0.138000,0,0,255
551.306519,-383.799561,0.138100,0,0,255
550.973083,-384.052673,0.138200,0,0,255
550.597595,-384.282776,0.138300,0,0,255
550.257080,-384.512878,0.138400,0,0,255
549.916626,-384.742950,0.138500,0,0,255
549.576233,-384.973053,0.138600,0,0,255
549.235779,-385.203156,0.138700,0,0,255
548.895325,-385.433228,0.138800,0,0,255
548.554871,-385.663330,0.138900,0,0,255
548.214478,-385.893402,0.139000,0,0,255
547.874023,-386.123505,0.139100,0,0,255
547.533508,-386.353607,0.139200,0,0,255
547.193054,-386.583710,0.139300,0,0,255
546.852600,-386.813812,0.139400,0,0,255
546.512207,-387.043915,0.139500,0,0,255
546.171753,-387.273987,0.139600,0,0,255
545.831299,-387.504089,0.139700,0,0,255
545.490845,-387.734192,0.139800,0,0,255
545.150330,-387.964294,0.139900,0,0,255
544.809937,-388.194397,0.140000,0,0,255
544.469482,-388.424500,0.140100,0,0,255
544.129028,-388.654572,0.140200,0,0,255
543.788574,-388.884674,0.140300,0,0,255
543.448181,-389.114777,0.140400,0,0,255
543.107727,-389.344879,0.140500,0,0,255
542.767212,-389.574982,0.140600,0,0,255
542.426758,-389.805054,0.140700,0,0,255
542.086304,-390.035126,0.140800,0,0,255
541.745911,-390.265228,0.140900,0,0,255
541.405457,-390.495331,0.141000,0,0,255
541.065002,-390.725433,0.141100,0,0,255
540.724548,-390.955536,0.141200,0,0,255
540.384094,-391.185608,0.141300,0,0,255
540.043640,-391.415710,0.141400,0,0,255
539.703186,-391.645813,0.141500,0,0,255
539.362732,-391.875916,0.141600,0,0,255
539.022278,-392.106018,0.141700,0,0,255
538.681885,-392.336121,0.141800,0,0,255
538.341431,-392.566193,0.141900,0,0,255
538.000977,-392.796295,0.142000,0,0,255
537.660461,-393.026398,0.142100,0,0,255
537.320068,-393.256500,0.142200,0,0,255
536.979614,-393.486603,0.142300,0,0,255
536.614624,-393.900787,0.142400,0,0,255
536.281128,-394.153870,0.142500,0,0,255
535.947693,-394.406982,0.142600,0,0,255
535.614258,-394.660095,0.142700,0,0,255
535.280884,-394.913177,0.142800,0,0,255
534.947449,-395.166290,0.142900,0,0,255
534.614014,-395.419403,0.143000,0,0,255
534.280579,-395.672485,0.143100,0,0,255
533.947144,-395.925598,0.143200,0,0,255
533.613770,-396.178711,0.143300,0,0,255
533.280334,-396.431824,0.143400,0,0,255
532.946838,-396.684906,0.143500,0,0,255
532.613403,-396.938019,0.143600,0,0,255
532.279968,-397.191132,0.143700,0,0,255
531.946533,-397.444214,0.143800,0,0,255
531.613159,-397.697327,0.143900,0,0,255
531.279724,-397.950439,0.144000,0,0,255
530.946289,-398.203552,0.144100,0,0,255
530.612854,-398.456635,0.144200,0,0,255
530.279419,-398.709747,0.144300,0,0,255
529.946045,-398.962860,0.144400,0,0,255
529.612549,-399.215942,0.144500,0,0,255
529.279114,-399.469055,0.144600,0,0,255
528.945679,-399.722198,0.144700,0,0,255
528.612244,-399.975281,0.144800,0,0,255
528.278870,-400.228394,0.144900,0,0,255
527.945435,-400.481506,0.145000,0,0,255
527.612000,-400.734619,0.145100,0,0,255
527.278564,-400.987701,0.145200,0,0,255
526.945129,-401.240814,0.145300,0,0,255
526.611694,-401.493927,0.145400,0,0,255
526.278259,-401.747009,0.145500,0,0,255
525.944824,-402.000122,0.145600,0,0,255
525.611389,-402.253235,0.145700,0,0,255
525.277954,-402.506317,0.145800,0,0,255
524.944580,-402.759430,0.145900,0,0,255
524.611145,-403.012543,0.146000,0,0,255
524.277710,-403.265656,0.146100,0,0,255
523.944275,-403.518738,0.146200,0,0,255
523.610840,-403.771851,0.146300,0,0,255
523.277405,-404.024963,0.146400,0,0,255
522.943970,-404.278046,0.146500,0,0,255
522.610535,-404.531158,0.146600,0,0,255
522.277100,-404.784271,0.146700,0,0,255
521.943665,-405.037415,0.146800,0,0,255
521.610229,-405.290497,0.146900,0,0,255
521.276855,-405.543610,0.147000,0,0,255
520.943420,-405.796722,0.147100,0,0,255
520.609985,-406.049805,0.147200,0,0,255
520.276489,-406.302917,0.147300,0,0,255
519.943115,-406.556030,0.147400,0,0,255
519.609680,-406.809113,0.147500,0,0,255
519.276245,-407.062225,0.147600,0,0,255
518.942810,-407.315338,0.147700,0,0,255
518.609375,-407.568451,0.147800,0,0,255
518.275940,-407.821533,0.147900,0,0,255
517.942566,-408.074646,0.148000,0,0,255
517.609131,-408.327759,0.148100,0,0,255
517.275696,-408.580841,0.148200,0,0,255
516.942200,-408.833954,0.148300,0,0,255
516.608765,-409.087067,0.148400,0,0,255
516.275391,-409.340179,0.148500,0,0,255
515.941956,-409.593262,0.148600,0,0,255
515.608521,-409.846375,0.148700,0,0,255
515.275085,-410.099487,0.148800,0,0,255
514.941650,-410.352570,0.148900,0,0,255
514.608276,-410.605713,0.149000,0,0,255
514.274841,-410.858826,0.149100,0,0,255
513.941345,-411.111908,0.149200,0,0,255
513.607910,-411.365021,0.149300,0,0,255
513.274475,-411.618134,0.149400,0,0,255
512.941101,-411.871246,0.149500,0,0,255
512.607666,-412.124329,0.149600,0,0,255
512.274231,-412.377441,0.149700,0,0,255
511.940796,-412.630554,0.149800,0,0,255
511.607391,-412.883636,0.149900,0,0,255
511.273956,-413.136749,0.150000,0,0,255
510.940521,-413.389862,0.150100,0,0,255
510.607056,-413.642975,0.150200,0,0,255
510.273621,-413.896057,0.150300,0,0,255
509.940216,-414.149170,0.150400,0,0,255
509.606781,-414.402283,0.150500,0,0,255
509.273346,-414.655365,0.150600,0,0,255
508.939941,-414.908478,0.150700,0,0,255
508.606506,-415.161591,0.150800,0,0,255
508.273071,-415.414673,0.150900,0,0,255
507.939667,-415.667786,0.151000,0,0,255
507.606171,-415.920929,0.151100,0,0,255
507.272766,-416.174042,0.151200,0,0,255
506.939331,-416.427124,0.151300,0,0,255
506.605896,-416.680237,0.151400,0,0,255
506.272491,-416.933350,0.151500,0,0,255
505.619659,-417.485565,0.151600,0,0,255
505.317810,-417.830688,0.151700,0,0,255
505.015991,-418.175842,0.151800,0,0,255
504.714142,-418.520996,0.151900,0,0,255
504.412292,-418.866150,0.152000,0,0,255
504.110474,-419.211273,0.152100,0,0,255
503.808624,-419.556427,0.152200,0,0,255
503.506805,-419.901581,0.152300,0,0,255
503.204956,-420.246704,0.152400,0,0,255
502.903107,-420.591858,0.152500,0,0,255
502.601288,-420.936981,0.152600,0,0,255
502.299438,-421.282135,0.152700,0,0,255
501.997559,-421.627289,0.152800,0,0,255
501.695709,-421.972443,0.152900,0,0,255
501.393860,-422.317566,0.153000,0,0,255
501.092041,-422.662689,0.153100,0,0,255
500.790192,-423.007874,0.153200,0,0,255
500.488342,-423.352997,0.153300,0,0,255
500.186523,-423.698151,0.153400,0,0,255
499.884674,-424.043274,0.153500,0,0,255
499.582855,-424.388458,0.153600,0,0,255
499.281006,-424.733582,0.153700,0,0,255
498.979156,-425.078705,0.153800,0,0,255
498.677338,-425.423859,0.153900,0,0,255
498.375488,-425.769012,0.154000,0,0,255
498.073669,-426.114166,0.154100,0,0,255
497.771820,-426.459290,0.154200,0,0,255
497.469971,-426.804443,0.154300,0,0,255
497.168091,-427.149567,0.154400,0,0,255
496.866241,-427.494720,0.154500,0,0,255
496.564392,-427.839874,0.154600,0,0,255
496.262573,-428.184998,0.154700,0,0,255
495.960724,-428.530151,0.154800,0,0,255
495.658905,-428.875305,0.154900,0,0,255
495.174530,-429.542572,0.155000,0,0,255
494.886749,-429.910706,0.155100,0,0,255
494.598938,-430.278870,0.155200,0,0,255
494.311127,-430.647034,0.155300,0,0,255
494.023376,-431.015198,0.155400,0,0,255
493.735535,-431.383331,0.155500,0,0,255
493.447723,-431.751495,0.155600,0,0,255
493.159973,-432.119629,0.155700,0,0,255
492.872131,-432.487793,0.155800,0,0,255
492.584320,-432.855957,0.155900,0,0,255
492.296509,-433.224091,0.156000,0,0,255
492.008728,-433.592285,0.156100,0,0,255
491.720917,-433.960419,0.156200,0,0,255
491.433105,-434.328583,0.156300,0,0,255
491.145355,-434.696716,0.156400,0,0,255
490.857513,-435.064880,0.156500,0,0,255
490.569702,-435.433014,0.156600,0,0,255
490.281891,-435.801178,0.156700,0,0,255
489.994141,-436.169312,0.156800,0,0,255
489.706299,-436.537476,0.156900,0,0,255
489.418488,-436.905640,0.157000,0,0,255
489.130737,-437.273804,0.157100,0,0,255
488.842896,-437.641937,0.157200,0,0,255
488.555084,-438.010101,0.157300,0,0,255
488.267273,-438.378235,0.157400,0,0,255
487.979492,-438.746399,0.157500,0,0,255
487.691681,-439.114532,0.157600,0,0,255
487.403870,-439.482697,0.157700,0,0,255
487.116119,-439.850861,0.157800,0,0,255
486.828278,-440.219025,0.157900,0,0,255
486.540466,-440.587189,0.158000,0,0,255
486.252655,-440.955322,0.158100,0,0,255
485.964905,-441.323486,0.158200,0,0,255
485.677063,-441.691620,0.158300,0,0,255
485.389252,-442.059784,0.158400,0,0,255
485.101501,-442.427917,0.158500,0,0,255
484.813660,-442.796082,0.158600,0,0,255
484.511841,-443.509399,0.158700,0,0,255
484.325806,-444.038605,0.158800,0,0,255
484.139771,-444.567810,0.158900,0,0,255
483.953766,-445.097046,0.159000,0,0,255
483.767731,-445.626251,0.159100,0,0,255
483.581726,-446.155457,0.159200,0,0,255
483.395691,-446.684723,0.159300,0,0,255
483.209656,-447.213928,0.159400,0,0,255
483.023712,-447.743134,0.159500,0,0,255
482.837677,-448.272339,0.159600,0,0,255
482.651642,-448.801575,0.159700,0,0,255
482.465637,-449.330811,0.159800,0,0,255
482.184845,-450.090118,0.159900,0,0,255
482.146240,-450.688354,0.160000,0,0,255
482.107605,-451.286621,0.160100,0,0,255
482.069031,-451.884857,0.160200,0,0,255
482.030396,-452.483124,0.160300,0,0,255
481.991791,-453.081360,0.160400,0,0,255
481.953156,-453.679626,0.160500,0,0,255
481.914612,-454.277863,0.160600,0,0,255
481.875977,-454.876129,0.160700,0,0,255
481.837341,-455.474365,0.160800,0,0,255
481.798767,-456.072632,0.160900,0,0,255
481.760162,-456.670837,0.161000,0,0,255
481.721527,-457.269073,0.161100,0,0,255
481.682922,-457.867340,0.161200,0,0,255
481.644348,-458.465576,0.161300,0,0,255
481.605713,-459.063843,0.161400,0,0,255
481.567108,-459.662079,0.161500,0,0,255
481.528534,-460.260345,0.161600,0,0,255
481.489899,-460.858582,0.161700,0,0,255
481.451294,-461.456848,0.161800,0,0,255
481.412659,-462.055084,0.161900,0,0,255
481.374084,-462.653351,0.162000,0,0,255
481.335480,-463.251587,0.162100,0,0,255
481.296844,-463.849854,0.162200,0,0,255
481.258270,-464.448090,0.162300,0,0,255
481.219666,-465.046356,0.162400,0,0,255
481.181030,-465.644592,0.162500,0,0,255
481.142395,-466.242859,0.162600,0,0,255
481.103851,-466.841064,0.162700,0,0,255
481.065216,-467.439301,0.162800,0,0,255
481.026581,-468.037567,0.162900,0,0,255
480.988037,-468.635803,0.163000,0,0,255
480.949402,-469.234070,0.163100,0,0,255
480.910767,-469.832306,0.163200,0,0,255
480.854645,-470.890778,0.163300,0,0,255
480.728302,-471.466003,0.163400,0,0,255
480.601898,-472.041260,0.163500,0,0,255
480.475555,-472.616486,0.163600,0,0,255
480.349213,-473.191711,0.163700,0,0,255
480.222870,-473.766968,0.163800,0,0,255
480.096527,-474.342194,0.163900,0,0,255
479.970154,-474.917419,0.164000,0,0,255
479.843811,-475.492676,0.164100,0,0,255
479.717438,-476.067902,0.164200,0,0,255
479.591095,-476.643158,0.164300,0,0,255
479.464752,-477.218384,0.164400,0,0,255
479.338379,-477.793610,0.164500,0,0,255
479.212036,-478.368896,0.164600,0,0,255
479.085693,-478.944122,0.164700,0,0,255
478.959320,-479.519348,0.164800,0,0,255
478.832977,-480.094604,0.164900,0,0,255
478.706635,-480.669830,0.165000,0,0,255
478.580261,-481.245087,0.165100,0,0,255
478.453918,-481.820312,0.165200,0,0,255
478.327576,-482.395538,0.165300,0,0,255
478.201233,-482.970795,0.165400,0,0,255
478.022217,-483.500000,0.165500,0,0,255
469.697021,-495.856140,0.165600,0,0,255
670.098755,-136.101578,0.165700,0,0,255
669.986389,-136.676819,0.165800,0,0,255
669.874146,-137.252060,0.165900,0,0,255
669.761841,-137.827301,0.166000,0,0,255
669.649475,-138.402527,0.166100,0,0,255
669.537170,-138.977768,0.166200,0,0,255
669.424866,-139.553024,0.166300,0,0,255
669.312561,-140.128265,0.166400,0,0,255
669.200256,-140.703491,0.166500,0,0,255
669.087952,-141.278732,0.166600,0,0,255
668.975586,-141.853973,0.166700,0,0,255
668.863281,-142.429214,0.166800,0,0,255
668.751038,-143.004440,0.166900,0,0,255
668.638672,-143.579681,0.167000,0,0,255
668.526367,-144.154938,0.167100,0,0,255
668.414062,-144.730179,0.167200,0,0,255
668.301697,-145.305405,0.167300,0,0,255
668.189392,-145.880646,0.167400,0,0,255
668.077148,-146.455887,0.167500,0,0,255
667.947266,-147.192184,0.167600,0,0,255
667.926147,-147.790436,0.167700,0,0,255
667.905151,-148.388687,0.167800,0,0,255
667.884033,-148.986938,0.167900,0,0,255
667.863037,-149.585190,0.168000,0,0,255
667.841919,-150.183441,0.168100,0,0,255
667.820923,-150.781693,0.168200,0,0,255
667.799805,-151.379944,0.168300,0,0,255
667.778809,-151.978195,0.168400,0,0,255
667.757690,-152.576431,0.168500,0,0,255
667.736694,-153.174683,0.168600,0,0,255
667.715576,-153.772919,0.168700,0,0,255
667.694580,-154.371170,0.168800,0,0,255
667.673462,-154.969421,0.168900,0,0,255
667.652466,-155.567673,0.169000,0,0,255
667.631348,-156.165924,0.169100,0,0,255
667.610352,-156.764175,0.169200,0,0,255
667.589233,-157.362411,0.169300,0,0,255
667.568237,-157.960663,0.169400,0,0,255
667.547119,-158.558914,0.169500,0,0,255
667.526123,-159.157166,0.169600,0,0,255
667.505005,-159.755417,0.169700,0,0,255
667.484009,-160.353668,0.169800,0,0,255
667.462891,-160.951920,0.169900,0,0,255
667.441833,-161.550171,0.170000,0,0,255
667.420776,-162.148407,0.170100,0,0,255
667.382202,-163.114822,0.170200,0,0,255
667.455872,-163.713058,0.170300,0,0,255
667.529602,-164.311310,0.170400,0,0,255
667.603271,-164.909561,0.170500,0,0,255
667.677002,-165.507797,0.170600,0,0,255
667.750671,-166.106049,0.170700,0,0,255
667.824402,-166.704300,0.170800,0,0,255
667.898071,-167.302551,0.170900,0,0,255
667.971802,-167.900803,0.171000,0,0,255
668.045532,-168.499054,0.171100,0,0,255
668.119263,-169.097290,0.171200,0,0,255
668.192932,-169.695541,0.171300,0,0,255
668.301697,-170.431854,0.171400,0,0,255
668.519348,-170.915054,0.171500,0,0,255
668.736938,-171.398254,0.171600,0,0,255
668.954529,-171.881454,0.171700,0,0,255
669.172180,-172.364655,0.171800,0,0,255
669.389771,-172.847855,0.171900,0,0,255
669.607361,-173.331055,0.172000,0,0,255
669.824951,-173.814255,0.172100,0,0,255
670.042603,-174.297455,0.172200,0,0,255
670.260193,-174.780655,0.172300,0,0,255
670.477783,-175.263855,0.172400,0,0,255
670.695435,-175.747055,0.172500,0,0,255
670.913025,-176.230255,0.172600,0,0,255
671.130615,-176.713455,0.172700,0,0,255
671.348267,-177.196671,0.172800,0,0,255
671.565857,-177.679871,0.172900,0,0,255
671.783447,-178.163071,0.173000,0,0,255
672.001038,-178.646271,0.173100,0,0,255
672.218628,-179.129471,0.173200,0,0,255
672.436218,-179.612671,0.173300,0,0,255
672.653870,-180.095871,0.173400,0,0,255
672.966187,-180.855179,0.173500,0,0,255
673.180359,-181.338379,0.173600,0,0,255
673.394470,-181.821579,0.173700,0,0,255
673.608521,-182.304779,0.173800,0,0,255
673.822632,-182.787979,0.173900,0,0,255
674.036682,-183.271179,0.174000,0,0,255
674.250793,-183.754379,0.174100,0,0,255
674.464905,-184.237595,0.174200,0,0,255
674.679016,-184.720795,0.174300,0,0,255
674.893127,-185.203995,0.174400,0,0,255
675.107239,-185.687195,0.174500,0,0,255
675.321289,-186.170395,0.174600,0,0,255
675.535400,-186.653595,0.174700,0,0,255
675.749451,-187.136795,0.174800,0,0,255
675.963623,-187.619995,0.174900,0,0,255
676.177734,-188.103195,0.175000,0,0,255
676.391785,-188.586395,0.175100,0,0,255
676.605896,-189.069595,0.175200,0,0,255
676.819946,-189.552795,0.175300,0,0,255
677.034058,-190.035995,0.175400,0,0,255
677.248169,-190.519196,0.175500,0,0,255
677.462280,-191.002396,0.175600,0,0,255
677.676392,-191.485596,0.175700,0,0,255
677.890503,-191.968796,0.175800,0,0,255
678.104553,-192.452011,0.175900,0,0,255
678.318665,-192.935211,0.176000,0,0,255
678.532715,-193.418411,0.176100,0,0,255
678.746826,-193.901611,0.176200,0,0,255
678.960999,-194.384811,0.176300,0,0,255
679.175049,-194.868011,0.176400,0,0,255
679.389160,-195.351212,0.176500,0,0,255
679.603210,-195.834412,0.176600,0,0,255
679.817322,-196.317612,0.176700,0,0,255
680.031433,-196.800812,0.176800,0,0,255
680.245483,-197.284012,0.176900,0,0,255
680.459656,-197.767212,0.177000,0,0,255
680.715881,-198.595566,0.177100,0,0,255
680.807068,-199.170807,0.177200,0,0,255
680.898315,-199.746048,0.177300,0,0,255
680.989624,-200.321274,0.177400,0,0,255
681.080872,-200.896515,0.177500,0,0,255
681.172119,-201.471756,0.177600,0,0,255
681.263367,-202.046997,0.177700,0,0,255
681.354614,-202.622223,0.177800,0,0,255
681.445862,-203.197479,0.177900,0,0,255
681.537170,-203.772720,0.178000,0,0,255
681.628357,-204.347961,0.178100,0,0,255
681.719604,-204.923187,0.178200,0,0,255
681.810913,-205.498428,0.178300,0,0,255
681.902161,-206.073669,0.178400,0,0,255
681.993408,-206.648911,0.178500,0,0,255
682.084656,-207.224136,0.178600,0,0,255
682.175903,-207.799393,0.178700,0,0,255
682.267151,-208.374634,0.178800,0,0,255
682.358459,-208.949875,0.178900,0,0,255
682.449707,-209.525101,0.179000,0,0,255
682.540894,-210.100342,0.179100,0,0,255
682.632202,-210.675583,0.179200,0,0,255
682.723450,-211.250824,0.179300,0,0,255
682.814697,-211.826050,0.179400,0,0,255
682.909485,-212.677429,0.179500,0,0,255
682.846313,-213.275665,0.179600,0,0,255
682.783142,-213.873901,0.179700,0,0,255
682.719971,-214.472153,0.179800,0,0,255
682.656738,-215.070404,0.179900,0,0,255
682.593567,-215.668655,0.180000,0,0,255
682.530396,-216.266907,0.180100,0,0,255
682.467224,-216.865158,0.180200,0,0,255
682.404053,-217.463409,0.180300,0,0,255
682.340881,-218.061661,0.180400,0,0,255
682.277710,-218.659897,0.180500,0,0,255
682.214539,-219.258148,0.180600,0,0,255
682.151367,-219.856400,0.180700,0,0,255
682.088196,-220.454651,0.180800,0,0,255
682.025024,-221.052902,0.180900,0,0,255
681.961853,-221.651154,0.181000,0,0,255
681.898621,-222.249405,0.181100,0,0,255
681.835449,-222.847656,0.181200,0,0,255
681.772278,-223.445908,0.181300,0,0,255
681.709106,-224.044128,0.181400,0,0,255
681.645935,-224.642380,0.181500,0,0,255
681.582764,-225.240631,0.181600,0,0,255
681.519592,-225.838882,0.181700,0,0,255
681.386230,-226.966354,0.181800,0,0,255
681.242310,-227.518585,0.181900,0,0,255
681.098389,-228.070816,0.182000,0,0,255
680.954529,-228.623047,0.182100,0,0,255
680.810608,-229.175278,0.182200,0,0,255
680.666687,-229.727493,0.182300,0,0,255
680.522827,-230.279739,0.182400,0,0,255
680.378906,-230.831970,0.182500,0,0,255
680.234985,-231.384186,0.182600,0,0,255
680.091064,-231.936432,0.182700,0,0,255
679.947205,-232.488647,0.182800,0,0,255
679.803345,-233.040878,0.182900,0,0,255
679.659424,-233.593109,0.183000,0,0,255
679.515503,-234.145340,0.183100,0,0,255
679.371582,-234.697571,0.183200,0,0,255
679.227661,-235.249802,0.183300,0,0,255
679.083740,-235.802032,0.183400,0,0,255
678.939941,-236.354248,0.183500,0,0,255
678.796021,-236.906494,0.183600,0,0,255
678.652100,-237.458710,0.183700,0,0,255
678.508179,-238.010956,0.183800,0,0,255
678.364258,-238.563187,0.183900,0,0,255
678.220337,-239.115402,0.184000,0,0,255
678.076477,-239.667648,0.184100,0,0,255
677.932617,-240.219864,0.184200,0,0,255
677.788696,-240.772095,0.184300,0,0,255
677.644775,-241.324326,0.184400,0,0,255
677.500854,-241.876556,0.184500,0,0,255
677.356995,-242.428772,0.184600,0,0,255
677.213074,-242.981018,0.184700,0,0,255
677.083252,-243.786346,0.184800,0,0,255
676.855103,-244.269562,0.184900,0,0,255
676.626953,-244.752762,0.185000,0,0,255
676.398804,-245.235962,0.185100,0,0,255
676.170654,-245.719162,0.185200,0,0,255
675.942505,-246.202362,0.185300,0,0,255
675.714417,-246.685562,0.185400,0,0,255
675.486267,-247.168762,0.185500,0,0,255
675.258118,-247.651962,0.185600,0,0,255
675.029968,-248.135162,0.185700,0,0,255
674.801819,-248.618362,0.185800,0,0,255
674.573730,-249.101562,0.185900,0,0,255
674.345581,-249.584763,0.186000,0,0,255
674.117432,-250.067963,0.186100,0,0,255
673.889282,-250.551163,0.186200,0,0,255
673.661133,-251.034363,0.186300,0,0,255
673.313721,-251.701630,0.186400,0,0,255
673.025879,-252.069794,0.186500,0,0,255
672.738098,-252.437943,0.186600,0,0,255
672.450317,-252.806091,0.186700,0,0,255
672.162476,-253.174240,0.186800,0,0,255
671.874695,-253.542404,0.186900,0,0,255
671.586914,-253.910553,0.187000,0,0,255
671.299072,-254.278702,0.187100,0,0,255
671.011292,-254.646866,0.187200,0,0,255
670.723450,-255.015030,0.187300,0,0,255
670.435669,-255.383179,0.187400,0,0,255
670.147888,-255.751328,0.187500,0,0,255
669.860046,-256.119476,0.187600,0,0,255
669.572266,-256.487640,0.187700,0,0,255
669.284485,-256.855774,0.187800,0,0,255
668.996643,-257.223938,0.187900,0,0,255
668.708862,-257.592072,0.188000,0,0,255
668.421082,-257.960236,0.188100,0,0,255
668.133240,-258.328400,0.188200,0,0,255
667.845459,-258.696564,0.188300,0,0,255
667.557678,-259.064697,0.188400,0,0,255
667.269836,-259.432861,0.188500,0,0,255
666.982056,-259.801025,0.188600,0,0,255
666.694214,-260.169159,0.188700,0,0,255
666.406433,-260.537323,0.188800,0,0,255
666.118652,-260.905457,0.188900,0,0,255
665.858887,-261.572754,0.189000,0,0,255
649.503296,-277.104218,0.189100,0,0,255
469.697021,-495.856140,0.189200,0,0,255
469.419739,-496.247314,0.189300,0,0,255
469.142487,-496.638458,0.189400,0,0,255
468.865204,-497.029633,0.189500,0,0,255
468.587921,-497.420776,0.189600,0,0,255
468.310669,-497.811951,0.189700,0,0,255
468.033386,-498.203125,0.189800,0,0,255
467.756104,-498.594269,0.189900,0,0,255
467.478851,-498.985443,0.190000,0,0,255
467.201569,-499.376617,0.190100,0,0,255
466.924286,-499.767761,0.190200,0,0,255
466.647003,-500.158936,0.190300,0,0,255
466.369751,-500.550079,0.190400,0,0,255
466.092468,-500.941254,0.190500,0,0,255
465.815186,-501.332428,0.190600,0,0,255
465.537933,-501.723572,0.190700,0,0,255
465.260651,-502.114746,0.190800,0,0,255
464.983368,-502.505890,0.190900,0,0,255
464.706116,-502.897064,0.191000,0,0,255
464.428833,-503.288239,0.191100,0,0,255
464.151550,-503.679382,0.191200,0,0,255
463.874268,-504.070557,0.191300,0,0,255
463.597015,-504.461731,0.191400,0,0,255
463.319763,-504.852875,0.191500,0,0,255
463.042450,-505.244049,0.191600,0,0,255
462.765198,-505.635193,0.191700,0,0,255
462.487915,-506.026367,0.191800,0,0,255
462.210632,-506.417542,0.191900,0,0,255
461.933380,-506.808685,0.192000,0,0,255
461.656097,-507.199860,0.192100,0,0,255
461.378845,-507.591003,0.192200,0,0,255
461.101532,-507.982178,0.192300,0,0,255
460.824280,-508.373352,0.192400,0,0,255
460.547028,-508.764496,0.192500,0,0,255
460.269714,-509.155670,0.192600,0,0,255
459.992462,-509.546844,0.192700,0,0,255
459.715179,-509.937988,0.192800,0,0,255
459.437927,-510.329163,0.192900,0,0,255
459.160645,-510.720306,0.193000,0,0,255
458.883362,-511.111481,0.193100,0,0,255
458.606110,-511.502655,0.193200,0,0,255
458.328827,-511.893799,0.193300,0,0,255
458.051544,-512.284973,0.193400,0,0,255
457.802368,-512.837219,0.193500,0,0,255
457.570740,-513.297424,0.193600,0,0,255
457.339081,-513.757629,0.193700,0,0,255
457.107422,-514.217773,0.193800,0,0,255
456.875793,-514.677979,0.193900,0,0,255
456.644135,-515.138123,0.194000,0,0,255
456.412476,-515.598328,0.194100,0,0,255
456.180847,-516.058533,0.194200,0,0,255
455.949188,-516.518738,0.194300,0,0,255
455.717560,-516.978943,0.194400,0,0,255
455.485901,-517.439148,0.194500,0,0,255
455.254242,-517.899292,0.194600,0,0,255
455.022614,-518.359497,0.194700,0,0,255
454.790955,-518.819702,0.194800,0,0,255
454.559326,-519.279846,0.194900,0,0,255
454.327667,-519.740051,0.195000,0,0,255
454.096008,-520.200256,0.195100,0,0,255
453.864380,-520.660461,0.195200,0,0,255
453.632721,-521.120667,0.195300,0,0,255
453.401093,-521.580872,0.195400,0,0,255
453.169434,-522.041016,0.195500,0,0,255
452.937775,-522.501221,0.195600,0,0,255
452.706146,-522.961426,0.195700,0,0,255
452.474487,-523.421570,0.195800,0,0,255
452.242859,-523.881775,0.195900,0,0,255
452.011200,-524.341980,0.196000,0,0,255
451.779541,-524.802185,0.196100,0,0,255
451.547913,-525.262390,0.196200,0,0,255
451.316284,-525.722534,0.196300,0,0,255
451.084625,-526.182739,0.196400,0,0,255
450.852997,-526.642944,0.196500,0,0,255
450.621338,-527.103149,0.196600,0,0,255
450.389709,-527.563354,0.196700,0,0,255
450.158051,-528.023560,0.196800,0,0,255
449.926392,-528.483704,0.196900,0,0,255
449.694763,-528.943909,0.197000,0,0,255
449.463104,-529.404114,0.197100,0,0,255
449.231476,-529.864258,0.197200,0,0,255
448.999817,-530.324463,0.197300,0,0,255
448.768158,-530.784668,0.197400,0,0,255
448.536530,-531.244873,0.197500,0,0,255
448.304871,-531.705078,0.197600,0,0,255
448.073242,-532.165222,0.197700,0,0,255
447.841583,-532.625427,0.197800,0,0,255
447.609924,-533.085632,0.197900,0,0,255
447.378296,-533.545776,0.198000,0,0,255
447.146637,-534.005981,0.198100,0,0,255
446.915009,-534.466187,0.198200,0,0,255
446.683350,-534.926392,0.198300,0,0,255
446.451691,-535.386597,0.198400,0,0,255
446.220062,-535.846802,0.198500,0,0,255
445.988403,-536.306946,0.198600,0,0,255
445.756775,-536.767151,0.198700,0,0,255
445.525146,-537.227356,0.198800,0,0,255
445.293488,-537.687500,0.198900,0,0,255
445.061859,-538.147705,0.199000,0,0,255
444.830200,-538.607910,0.199100,0,0,255
444.598541,-539.068115,0.199200,0,0,255
444.366913,-539.528320,0.199300,0,0,255
444.135254,-539.988464,0.199400,0,0,255
443.903625,-540.448669,0.199500,0,0,255
443.794800,-541.415100,0.199600,0,0,255
443.577209,-541.898315,0.199700,0,0,255
443.359589,-542.381470,0.199800,0,0,255
443.141998,-542.864685,0.199900,0,0,255
442.924377,-543.347900,0.200000,0,0,255
442.706757,-543.831116,0.200100,0,0,255
442.489166,-544.314270,0.200200,0,0,255
442.271545,-544.797485,0.200300,0,0,255
442.053925,-545.280701,0.200400,0,0,255
441.836365,-545.763916,0.200500,0,0,255
441.618744,-546.247070,0.200600,0,0,255
441.401123,-546.730286,0.200700,0,0,255
441.183533,-547.213501,0.200800,0,0,255
440.965912,-547.696716,0.200900,0,0,255
440.748322,-548.179871,0.201000,0,0,255
440.530701,-548.663147,0.201100,0,0,255
440.313080,-549.146301,0.201200,0,0,255
440.095490,-549.629517,0.201300,0,0,255
439.877869,-550.112671,0.201400,0,0,255
439.660278,-550.595947,0.201500,0,0,255
439.442688,-551.079102,0.201600,0,0,255
439.225067,-551.562317,0.201700,0,0,255
439.007477,-552.045471,0.201800,0,0,255
438.789856,-552.528748,0.201900,0,0,255
438.572235,-553.011902,0.202000,0,0,255
438.354645,-553.495117,0.202100,0,0,255
438.137024,-553.978271,0.202200,0,0,255
437.919403,-554.461548,0.202300,0,0,255
437.701813,-554.944702,0.202400,0,0,255
437.484192,-555.427917,0.202500,0,0,255
437.266602,-555.911072,0.202600,0,0,255
437.049011,-556.394348,0.202700,0,0,255
436.831390,-556.877502,0.202800,0,0,255
436.613800,-557.360718,0.202900,0,0,255
436.396179,-557.843933,0.203000,0,0,255
436.220673,-558.465149,0.203100,0,0,255
435.939911,-558.856323,0.203200,0,0,255
435.659119,-559.247498,0.203300,0,0,255
435.378357,-559.638672,0.203400,0,0,255
435.097565,-560.029785,0.203500,0,0,255
434.816772,-560.420959,0.203600,0,0,255
434.536011,-560.812134,0.203700,0,0,255
434.255219,-561.203308,0.203800,0,0,255
433.974426,-561.594421,0.203900,0,0,255
433.693634,-561.985657,0.204000,0,0,255
433.412842,-562.376770,0.204100,0,0,255
433.132080,-562.767944,0.204200,0,0,255
432.851288,-563.159119,0.204300,0,0,255
432.570496,-563.550293,0.204400,0,0,255
432.289734,-563.941406,0.204500,0,0,255
432.008942,-564.332642,0.204600,0,0,255
431.728149,-564.723755,0.204700,0,0,255
431.447388,-565.114929,0.204800,0,0,255
431.166595,-565.506042,0.204900,0,0,255
430.885834,-565.897278,0.205000,0,0,255
430.605042,-566.288391,0.205100,0,0,255
430.324249,-566.679565,0.205200,0,0,255
430.043488,-567.070740,0.205300,0,0,255
429.762665,-567.461914,0.205400,0,0,255
429.481873,-567.853027,0.205500,0,0,255
429.201111,-568.244263,0.205600,0,0,255
428.920319,-568.635376,0.205700,0,0,255
428.639557,-569.026550,0.205800,0,0,255
428.358765,-569.417725,0.205900,0,0,255
428.077972,-569.808899,0.206000,0,0,255
427.797211,-570.200012,0.206100,0,0,255
427.516418,-570.591187,0.206200,0,0,255
427.235657,-570.982361,0.206300,0,0,255
426.923279,-571.350525,0.206400,0,0,255
426.737244,-571.879761,0.206500,0,0,255
426.551239,-572.408997,0.206600,0,0,255
426.365204,-572.938171,0.206700,0,0,255
426.130066,-573.582458,0.206800,0,0,255
425.842224,-576.136475,0.206900,0,0,255
451.867310,-629.863831,0.207000,0,0,255
451.590027,-629.472717,0.207100,0,0,255
451.312744,-629.081482,0.207200,0,0,255
451.035492,-628.690369,0.207300,0,0,255
450.758240,-628.299194,0.207400,0,0,255
450.463409,-627.862000,0.207500,0,0,255
450.200165,-627.447876,0.207600,0,0,255
449.936920,-627.033691,0.207700,0,0,255
449.673706,-626.619507,0.207800,0,0,255
449.410461,-626.205322,0.207900,0,0,255
449.147217,-625.791138,0.208000,0,0,255
448.884003,-625.376953,0.208100,0,0,255
448.403137,-624.525635,0.208200,0,0,255
448.210114,-624.180481,0.208300,0,0,255
436.227692,-600.894836,0.208400,0,0,255
436.410217,-601.216919,0.208500,0,0,255
440.442963,-609.017212,0.208600,0,0,255
440.681610,-609.477417,0.208700,0,0,255
440.920288,-609.937561,0.208800,0,0,255
441.158966,-610.397766,0.208900,0,0,255
441.397614,-610.857971,0.209000,0,0,255
441.804749,-611.617310,0.209100,0,0,255
442.060974,-612.054443,0.209200,0,0,255
442.317169,-612.491638,0.209300,0,0,255
442.573395,-612.928833,0.209400,0,0,255
442.829620,-613.365967,0.209500,0,0,255
443.085815,-613.803162,0.209600,0,0,255
443.342041,-614.240356,0.209700,0,0,255
443.633362,-614.700562,0.209800,0,0,255
443.879028,-615.160706,0.209900,0,0,255
444.124725,-615.620911,0.210000,0,0,255
444.370422,-616.081116,0.210100,0,0,255
444.616089,-616.541321,0.210200,0,0,255
444.861786,-617.001526,0.210300,0,0,255
445.107452,-617.461731,0.210400,0,0,255
445.353149,-617.921875,0.210500,0,0,255
445.598816,-618.382080,0.210600,0,0,255
445.844513,-618.842285,0.210700,0,0,255
446.090210,-619.302490,0.210800,0,0,255
446.335876,-619.762695,0.210900,0,0,255
446.581573,-620.222900,0.211000,0,0,255
446.939575,-620.798096,0.211100,0,0,255
447.571350,-621.971558,0.211200,0,0,255
447.350220,-622.063599,0.211300,0,0,255
447.097534,-621.626404,0.211400,0,0,255
446.686890,-620.913147,0.211500,0,0,255
443.370117,-614.930664,0.211600,0,0,255
459.560760,-639.159729,0.211700,0,0,255
459.279999,-638.814575,0.211800,0,0,255
458.988678,-638.446411,0.211900,0,0,255
458.613098,-637.963257,0.212000,0,0,255
458.318268,-637.595093,0.212100,0,0,255
457.963806,-637.180908,0.212200,0,0,255
456.647644,-635.570251,0.212300,0,0,255
447.725769,-623.490173,0.212400,0,0,255
447.694183,-623.444153,0.212500,0,0,255
438.979370,-608.257874,0.212600,0,0,255
433.100494,-594.244995,0.212700,0,0,255
432.868866,-593.784851,0.212800,0,0,255
432.637207,-593.324646,0.212900,0,0,255
432.300262,-592.634399,0.213000,0,0,255
432.135284,-592.312195,0.213100,0,0,255
455.334991,-633.890564,0.213200,0,0,255
455.029633,-633.545410,0.213300,0,0,255
454.724274,-633.200195,0.213400,0,0,255
454.418945,-632.855103,0.213500,0,0,255
454.113586,-632.509949,0.213600,0,0,255
453.808228,-632.164795,0.213700,0,0,255
453.264191,-631.635559,0.213800,0,0,255
452.972900,-631.267395,0.213900,0,0,255
452.681580,-630.899292,0.214000,0,0,255
452.390259,-630.531128,0.214100,0,0,255
452.014740,-630.047913,0.214200,0,0,255
451.867310,-629.863831,0.214300,0,0,255
455.422729,-633.982544,0.214400,0,0,255
455.334991,-633.890564,0.214500,0,0,255
551.738281,-744.428467,0.214600,0,0,255
551.383789,-744.267456,0.214700,0,0,255
551.029297,-744.106384,0.214800,0,0,255
550.544922,-743.876221,0.214900,0,0,255
550.243103,-743.738220,0.215000,0,0,255
549.885071,-743.600159,0.215100,0,0,255
549.527100,-743.462036,0.215200,0,0,255
549.169067,-743.324036,0.215300,0,0,255
548.811096,-743.185974,0.215400,0,0,255
548.239014,-742.909851,0.215500,0,0,255
547.880981,-742.771790,0.215600,0,0,255
547.523010,-742.633789,0.215700,0,0,255
547.164978,-742.495667,0.215800,0,0,255
546.807007,-742.357605,0.215900,0,0,255
546.449036,-742.219604,0.216000,0,0,255
546.091003,-742.081482,0.216100,0,0,255
545.733032,-741.943420,0.216200,0,0,255
545.375000,-741.805420,0.216300,0,0,255
545.017029,-741.667358,0.216400,0,0,255
544.658997,-741.529236,0.216500,0,0,255
544.301025,-741.391235,0.216600,0,0,255
543.942993,-741.253174,0.216700,0,0,255
543.539368,-740.954041,0.216800,0,0,255
543.181396,-740.815979,0.216900,0,0,255
542.823364,-740.677917,0.217000,0,0,255
542.465393,-740.539856,0.217100,0,0,255
