X,Y,Z,R,G,B
1358.076294,-859.476318,0.897800,181,129,132
1358.357178,-859.085144,0.897900,181,129,132
1358.637939,-858.694031,0.898000,181,129,132
1358.918701,-858.302795,0.898100,181,129,132
1359.199463,-857.911682,0.898200,181,129,132
1359.480225,-857.520508,0.898300,181,129,132
1359.760986,-857.129333,0.898400,181,129,132
1360.041870,-856.738159,0.898500,181,129,132
1360.322510,-856.347046,0.898600,181,129,132
1360.603394,-855.955811,0.898700,181,129,132
1360.894653,-855.495605,0.898800,181,129,132
1361.182495,-855.127502,0.898900,181,129,132
1361.470337,-854.759338,0.899000,181,129,132
1361.758057,-854.391174,0.899100,181,129,132
1362.045898,-854.023010,0.899200,181,129,132
1362.333618,-853.654907,0.899300,181,129,132
1362.621460,-853.286743,0.899400,181,129,132
1362.909302,-852.918579,0.899500,181,129,132
1363.197144,-852.550415,0.899600,181,129,132
1363.484863,-852.182312,0.899700,181,129,132
1363.856934,-851.676086,0.899800,181,129,132
1364.067505,-851.561035,0.899900,181,129,132
1364.436035,-851.515015,0.900000,181,129,132
1364.804565,-851.468994,0.900100,181,129,132
1365.173096,-851.422913,0.900200,181,129,132
1365.541626,-851.376892,0.900300,181,129,132
1365.910156,-851.330933,0.900400,181,129,132
1366.278687,-851.284912,0.900500,181,129,132
1366.647217,-851.238892,0.900600,181,129,132
1367.015747,-851.192871,0.900700,181,129,132
1367.384277,-851.146851,0.900800,181,129,132
1367.752808,-851.100830,0.900900,181,129,132
1368.121338,-851.054810,0.901000,181,129,132
1368.489868,-851.008789,0.901100,181,129,132
1368.858398,-850.962769,0.901200,181,129,132
1369.226929,-850.916748,0.901300,181,129,132
1369.595459,-850.870728,0.901400,181,129,132
1369.963989,-850.824707,0.901500,181,129,132
1370.332520,-850.778687,0.901600,181,129,132
1370.771240,-850.801697,0.901700,181,129,132
1371.136230,-850.732666,0.901800,181,129,132
1371.781982,-850.640625,0.901900,181,129,132
1372.347168,-850.479553,0.902000,181,129,132
1399.326782,-796.959290,0.902100,181,129,132
1399.684814,-797.097412,0.902200,181,129,132
1400.042847,-797.235413,0.902300,181,129,132
1400.400757,-797.373474,0.902400,181,129,132
1400.758789,-797.511597,0.902500,181,129,132
1401.116821,-797.649597,0.902600,181,129,132
1401.474854,-797.787659,0.902700,181,129,132
1401.832764,-797.925720,0.902800,181,129,132
1402.190796,-798.063782,0.902900,181,129,132
1402.548828,-798.201843,0.903000,181,129,132
1402.906860,-798.339905,0.903100,181,129,132
1403.264771,-798.477966,0.903200,181,129,132
1403.622803,-798.616028,0.903300,181,129,132
1403.980835,-798.754089,0.903400,181,129,132
1404.500366,-799.076233,0.903500,181,129,132
1404.858276,-799.214233,0.903600,181,129,132
1405.216309,-799.352295,0.903700,181,129,132
1405.574219,-799.490417,0.903800,181,129,132
1406.104248,-799.651428,0.903900,181,129,132
1406.490356,-799.858521,0.904000,181,129,132
1406.714966,-800.387756,0.904100,181,129,132
1406.788696,-800.985962,0.904200,181,129,132
1406.862427,-801.584229,0.904300,181,129,132
1406.936035,-802.182495,0.904400,181,129,132
1407.009766,-802.780762,0.904500,181,129,132
1407.108032,-803.540039,0.904600,181,129,132
1407.181763,-804.138306,0.904700,181,129,132
1407.255493,-804.736511,0.904800,181,129,132
1407.329224,-805.334839,0.904900,181,129,132
1407.402832,-805.933044,0.905000,181,129,132
1407.476562,-806.531311,0.905100,181,129,132
1407.550293,-807.129517,0.905200,181,129,132
1407.624023,-807.727844,0.905300,181,129,132
1407.732788,-808.556091,0.905400,181,129,132
1407.788940,-809.154419,0.905500,181,129,132
1407.845093,-809.752625,0.905600,181,129,132
1407.901245,-810.350891,0.905700,181,129,132
1407.957397,-810.949097,0.905800,181,129,132
1408.013550,-811.547424,0.905900,181,129,132
1408.083740,-812.398743,0.906000,181,129,132
1408.315430,-812.858948,0.906100,181,129,132
1408.547119,-813.319153,0.906200,181,129,132
1408.785645,-813.825317,0.906300,181,129,132
1408.985718,-814.331543,0.906400,181,129,132
1409.262939,-815.021790,0.906500,181,129,132
1409.206909,-815.620056,0.906600,181,129,132
1409.112183,-816.655518,0.906700,181,129,132
1408.922485,-817.207703,0.906800,181,129,132
1408.638306,-817.598938,0.906900,181,129,132
1408.354004,-817.990051,0.907000,181,129,132
1408.069702,-818.381226,0.907100,181,129,132
1407.785400,-818.772339,0.907200,181,129,132
1407.406250,-819.278625,0.907300,181,129,132
1407.167725,-819.738831,0.907400,181,129,132
1406.928955,-820.198975,0.907500,181,129,132
1406.690430,-820.659119,0.907600,181,129,132
1406.451660,-821.119324,0.907700,181,129,132
1406.206055,-821.602600,0.907800,181,129,132
1405.974365,-822.062744,0.907900,181,129,132
1405.742676,-822.522949,0.908000,181,129,132
1405.511108,-822.983154,0.908100,181,129,132
1405.114502,-823.788452,0.908200,181,129,132
1405.128418,-824.386719,0.908300,181,129,132
1405.149536,-825.376160,0.908400,181,129,132
1404.928467,-825.859314,0.908500,181,129,132
1404.707275,-826.342529,0.908600,181,129,132
1404.486206,-826.825745,0.908700,181,129,132
1404.145752,-827.539001,0.908800,181,129,132
1403.917603,-828.022278,0.908900,181,129,132
1403.689453,-828.505432,0.909000,181,129,132
1403.461426,-828.988647,0.909100,181,129,132
1403.233276,-829.471802,0.909200,181,129,132
1403.005127,-829.955078,0.909300,181,129,132
1402.776978,-830.438232,0.909400,181,129,132
1402.548828,-830.921448,0.909500,181,129,132
1402.096069,-831.818787,0.909600,181,129,132
1400.285034,-834.418884,0.909700,181,129,132
1398.867065,-796.752197,0.909800,181,129,132
1399.326782,-796.959290,0.909900,181,129,132
1400.285034,-834.418884,0.910000,181,129,132
1399.755005,-835.086182,0.910100,181,129,132
1399.755005,-835.086182,0.910200,181,129,132
1399.432129,-835.385315,0.910300,181,129,132
1399.109253,-835.684448,0.910400,181,129,132
1398.786255,-835.983521,0.910500,181,129,132
1398.168701,-836.535767,0.910600,181,129,132
1397.880859,-836.903931,0.910700,181,129,132
1397.593018,-837.272095,0.910800,181,129,132
1397.305176,-837.640259,0.910900,181,129,132
1396.778809,-838.376526,0.911000,181,129,132
1396.526123,-838.813721,0.911100,181,129,132
1396.273315,-839.250916,0.911200,181,129,132
1396.020630,-839.688049,0.911300,181,129,132
1395.585327,-840.447388,0.911400,181,129,132
1395.866211,-840.838562,0.911500,181,129,132
1396.146973,-841.229736,0.911600,181,129,132
1396.427734,-841.620850,0.911700,181,129,132
1396.708496,-842.012085,0.911800,181,129,132
1396.989380,-842.403198,0.911900,181,129,132
1397.270020,-842.794373,0.912000,181,129,132
1397.550903,-843.185486,0.912100,181,129,132
1397.831665,-843.576721,0.912200,181,129,132
1398.112427,-843.967834,0.912300,181,129,132
1398.403809,-844.359009,0.912400,181,129,132
1398.582764,-844.888245,0.912500,181,129,132
1398.761841,-845.417480,0.912600,181,129,132
1398.940796,-845.946655,0.912700,181,129,132
1399.263672,-846.890076,0.912800,181,129,132
1399.628662,-846.959106,0.912900,181,129,132
1400.179688,-847.051147,0.913000,181,129,132
1400.499146,-847.350281,0.913100,181,129,132
1400.962402,-847.787476,0.913200,181,129,132
1401.997803,-848.937927,0.913300,181,129,132
1439.875366,-783.291626,0.913400,181,129,132
1439.591064,-783.682800,0.913500,181,129,132
1439.306885,-784.073975,0.913600,181,129,132
1439.022583,-784.465149,0.913700,181,129,132
1438.506592,-785.132385,0.913800,181,129,132
1438.095947,-785.845703,0.913900,181,129,132
1438.095947,-786.489929,0.914000,181,129,132
1438.232788,-787.042175,0.914100,181,129,132
1438.369629,-787.594482,0.914200,181,129,132
1438.506592,-788.146667,0.914300,181,129,132
1438.643433,-788.698914,0.914400,181,129,132
1438.780273,-789.251099,0.914500,181,129,132
1439.019043,-790.217529,0.914600,181,129,132
1439.082153,-790.792786,0.914700,181,129,132
1438.945312,-791.575073,0.914800,181,129,132
1438.685547,-792.012268,0.914900,181,129,132
1438.425903,-792.449463,0.915000,181,129,132
1438.166138,-792.886597,0.915100,181,129,132
1437.906372,-793.323792,0.915200,181,129,132
1437.474731,-794.014099,0.915300,181,129,132
1437.246582,-794.474243,0.915400,181,129,132
1437.018433,-794.934448,0.915500,181,129,132
1436.790283,-795.394653,0.915600,181,129,132
1436.442871,-796.130981,0.915700,181,129,132
1436.035645,-796.614136,0.915800,181,129,132
1435.705688,-796.890320,0.915900,181,129,132
1435.260010,-797.235413,0.916000,181,129,132
1434.898438,-797.350525,0.916100,181,129,132
1434.350952,-797.534546,0.916200,181,129,132
1433.989502,-797.649597,0.916300,181,129,132
1433.627930,-797.764709,0.916400,181,129,132
1433.122559,-797.902710,0.916500,181,129,132
1425.446655,-803.586060,0.916600,181,129,132
1424.667480,-804.184326,0.916700,181,129,132
1419.016724,-808.348999,0.916800,181,129,132
1425.446655,-803.586060,0.916900,181,129,132
1424.667480,-804.184326,0.917000,181,129,132
1412.067383,-808.441101,0.917100,181,129,132
1411.660156,-808.348999,0.917200,181,129,132
1407.732788,-808.556091,0.917300,181,129,132
497.157562,-880.000854,0.917400,181,129,132
497.522614,-879.931824,0.917500,181,129,132
498.098206,-879.816772,0.917600,181,129,132
498.452698,-879.655701,0.917700,181,129,132
498.807159,-879.494690,0.917800,181,129,132
499.231842,-879.264526,0.917900,181,129,132
499.638977,-879.126465,0.918000,181,129,132
500.228638,-879.080505,0.918100,181,129,132
500.597198,-879.057434,0.918200,181,129,132
501.169281,-879.011414,0.918300,181,129,132
501.509674,-878.781372,0.918400,181,129,132
502.130920,-878.344116,0.918500,181,129,132
502.850464,-878.183044,0.918600,181,129,132
503.545349,-877.837952,0.918700,181,129,132
503.910431,-877.906982,0.918800,181,129,132
504.352631,-877.814941,0.918900,181,129,132
504.693085,-877.584839,0.919000,181,129,132
505.324860,-877.170654,0.919100,181,129,132
506.040863,-876.917542,0.919200,181,129,132
506.409363,-876.940613,0.919300,181,129,132
506.823517,-876.986572,0.919400,181,129,132
507.192078,-876.963562,0.919500,181,129,132
507.676392,-876.917542,0.919600,181,129,132
508.336243,-877.055603,0.919700,181,129,132
508.999603,-876.779480,0.919800,181,129,132
509.357574,-876.641479,0.919900,181,129,132
510.034973,-876.411316,0.920000,181,129,132
510.399963,-876.319336,0.920100,181,129,132
510.765045,-876.227295,0.920200,181,129,132
511.473999,-876.043152,0.920300,181,129,132
511.912720,-875.629028,0.920400,181,129,132
512.281250,-875.606018,0.920500,181,129,132
512.667358,-875.559998,0.920600,181,129,132
513.183228,-875.398926,0.920700,181,129,132
513.793945,-874.984741,0.920800,181,129,132
514.099304,-874.639587,0.920900,181,129,132
514.404663,-874.294495,0.921000,181,129,132
514.973267,-873.696228,0.921100,181,129,132
515.299622,-873.420105,0.921200,181,129,132
515.626099,-873.143982,0.921300,181,129,132
515.952454,-872.867859,0.921400,181,129,132
516.380676,-872.499695,0.921500,181,129,132
516.717651,-872.269653,0.921600,181,129,132
517.054565,-872.039551,0.921700,181,129,132
517.391479,-871.809448,0.921800,181,129,132
517.728394,-871.579346,0.921900,181,129,132
518.065369,-871.349243,0.922000,181,129,132
518.690125,-870.889099,0.922100,181,129,132
519.023560,-870.635986,0.922200,181,129,132
519.356995,-870.382874,0.922300,181,129,132
519.690430,-870.129761,0.922400,181,129,132
520.023804,-869.876648,0.922500,181,129,132
520.357239,-869.623535,0.922600,181,129,132
520.953918,-869.163330,0.922700,181,129,132
521.304871,-868.979248,0.922800,181,129,132
521.726074,-868.749207,0.922900,181,129,132
522.087585,-868.634094,0.923000,181,129,132
522.449097,-868.519043,0.923100,181,129,132
522.810547,-868.404053,0.923200,181,129,132
523.263367,-868.289001,0.923300,181,129,132
523.600342,-868.058838,0.923400,181,129,132
524.154846,-867.667725,0.923500,181,129,132
524.695374,-867.161499,0.923600,181,129,132
525.021729,-866.885376,0.923700,181,129,132
525.348206,-866.609253,0.923800,181,129,132
525.951843,-866.103088,0.923900,181,129,132
526.306335,-865.942017,0.924000,181,129,132
526.660828,-865.780945,0.924100,181,129,132
527.275024,-865.504822,0.924200,181,129,132
527.724304,-865.481812,0.924300,181,129,132
528.085815,-865.596863,0.924400,181,129,132
528.447327,-865.711914,0.924500,181,129,132
528.808838,-865.826904,0.924600,181,129,132
529.359863,-866.033997,0.924700,181,129,132
529.707336,-866.103088,0.924800,181,129,132
530.121460,-865.711914,0.924900,181,129,132
706.681274,-189.368729,0.925000,181,129,132
706.344299,-189.138626,0.925100,181,129,132
706.007385,-188.908539,0.925200,181,129,132
705.403687,-188.471344,0.925300,181,129,132
705.038696,-188.402328,0.925400,181,129,132
704.673584,-188.333298,0.925500,181,129,132
704.308594,-188.264267,0.925600,181,129,132
703.768127,-188.195236,0.925700,181,129,132
703.410156,-188.356293,0.925800,181,129,132
703.052124,-188.517380,0.925900,181,129,132
702.694153,-188.678436,0.926000,181,129,132
702.336121,-188.839493,0.926100,181,129,132
701.907898,-188.977570,0.926200,181,129,132
701.546387,-189.069595,0.926300,181,129,132
701.184875,-189.161636,0.926400,181,129,132
700.823425,-189.253677,0.926500,181,129,132
700.247803,-189.437744,0.926600,181,129,132
699.882751,-189.483780,0.926700,181,129,132
699.517761,-189.529785,0.926800,181,129,132
699.057983,-189.621826,0.926900,181,129,132
698.703491,-189.460770,0.927000,181,129,132
698.348999,-189.299698,0.927100,181,129,132
697.994507,-189.138626,0.927200,181,129,132
697.422424,-188.885529,0.927300,181,129,132
697.081970,-188.655426,0.927400,181,129,132
696.741516,-188.425339,0.927500,181,129,132
696.401062,-188.195236,0.927600,181,129,132
695.864075,-187.850098,0.927700,181,129,132
695.407776,-187.573975,0.927800,181,129,132
695.046265,-187.458939,0.927900,181,129,132
694.684814,-187.343887,0.928000,181,129,132
694.323303,-187.228836,0.928100,181,129,132
693.961792,-187.113785,0.928200,181,129,132
693.600281,-186.998734,0.928300,181,129,132
693.238708,-186.883682,0.928400,181,129,132
692.596497,-186.768646,0.928500,181,129,132
692.231445,-186.676620,0.928600,181,129,132
691.866394,-186.584579,0.928700,181,129,132
691.501404,-186.492523,0.928800,181,129,132
690.915283,-186.377487,0.928900,181,129,132
690.578308,-186.124374,0.929000,181,129,132
690.037842,-185.733215,0.929100,181,129,132
689.750000,-185.365067,0.929200,181,129,132
689.462219,-184.996918,0.929300,181,129,132
689.174438,-184.628769,0.929400,181,129,132
688.883118,-184.237595,0.929500,181,129,132
686.503479,-181.361404,0.929600,181,129,132
725.258484,-204.393967,0.929700,181,129,132
724.890015,-204.370972,0.929800,181,129,132
724.521423,-204.347961,0.929900,181,129,132
724.152954,-204.324936,0.930000,181,129,132
723.784363,-204.301926,0.930100,181,129,132
723.415894,-204.278931,0.930200,181,129,132
723.047363,-204.255920,0.930300,181,129,132
722.678833,-204.232910,0.930400,181,129,132
721.990906,-204.094849,0.930500,181,129,132
722.064636,-203.496613,0.930600,181,129,132
722.138306,-202.898361,0.930700,181,129,132
722.215515,-202.277100,0.930800,181,129,132
721.850525,-202.185059,0.930900,181,129,132
721.485474,-202.093018,0.931000,181,129,132
721.120483,-202.000977,0.931100,181,129,132
720.755493,-201.908936,0.931200,181,129,132
720.390503,-201.816910,0.931300,181,129,132
720.025452,-201.724869,0.931400,181,129,132
719.660400,-201.632828,0.931500,181,129,132
719.295410,-201.540787,0.931600,181,129,132
718.930359,-201.448746,0.931700,181,129,132
718.565369,-201.356705,0.931800,181,129,132
718.200378,-201.264664,0.931900,181,129,132
717.835327,-201.172623,0.932000,181,129,132
717.389587,-201.080597,0.932100,181,129,132
717.028076,-200.965546,0.932200,181,129,132
716.666565,-200.850510,0.932300,181,129,132
716.305054,-200.735458,0.932400,181,129,132
715.943604,-200.620407,0.932500,181,129,132
715.410034,-200.413315,0.932600,181,129,132
715.069580,-200.183212,0.932700,181,129,132
714.729187,-199.953125,0.932800,181,129,132
714.388733,-199.723022,0.932900,181,129,132
714.048279,-199.492950,0.933000,181,129,132
713.707825,-199.262848,0.933100,181,129,132
713.258545,-198.940704,0.933200,181,129,132
713.416504,-198.135361,0.933300,181,129,132
713.051514,-198.066345,0.933400,181,129,132
712.686462,-197.997314,0.933500,181,129,132
712.321472,-197.928299,0.933600,181,129,132
711.956482,-197.859253,0.933700,181,129,132
711.591370,-197.790222,0.933800,181,129,132
711.226379,-197.721207,0.933900,181,129,132
710.861389,-197.652161,0.934000,181,129,132
710.496338,-197.583145,0.934100,181,129,132
710.131348,-197.514114,0.934200,181,129,132
709.629456,-197.353043,0.934300,181,129,132
709.264404,-197.284012,0.934400,181,129,132
708.899414,-197.214996,0.934500,181,129,132
708.534424,-197.145966,0.934600,181,129,132
708.169373,-197.076935,0.934700,181,129,132
707.804382,-197.007904,0.934800,181,129,132
707.439392,-196.938873,0.934900,181,129,132
707.074341,-196.869843,0.935000,181,129,132
706.709290,-196.800812,0.935100,181,129,132
706.344299,-196.731796,0.935200,181,129,132
705.730103,-196.685760,0.935300,181,129,132
705.365051,-196.616745,0.935400,181,129,132
705.000061,-196.547714,0.935500,181,129,132
704.635071,-196.478683,0.935600,181,129,132
704.270020,-196.409653,0.935700,181,129,132
703.599670,-196.271591,0.935800,181,129,132
703.231079,-196.271591,0.935900,181,129,132
702.862610,-196.271591,0.936000,181,129,132
702.494080,-196.271591,0.936100,181,129,132
702.125549,-196.271591,0.936200,181,129,132
701.757019,-196.271591,0.936300,181,129,132
701.388489,-196.271591,0.936400,181,129,132
700.939209,-196.317612,0.936500,181,129,132
696.288757,-204.347961,0.936600,181,129,132
705.730103,-196.685760,0.936700,181,129,132
702.866089,-201.149628,0.936800,181,129,132
762.718445,-196.777802,0.936900,181,129,132
762.465759,-196.409653,0.937000,181,129,132
762.174438,-193.993652,0.937100,181,129,132
762.174438,-193.993652,0.937200,181,129,132
761.395264,-194.016663,0.937300,181,129,132
766.435303,-193.579483,0.937400,181,129,132
766.066833,-193.625504,0.937500,181,129,132
765.698242,-193.671509,0.937600,181,129,132
765.329773,-193.717545,0.937700,181,129,132
764.961182,-193.763550,0.937800,181,129,132
764.592712,-193.809586,0.937900,181,129,132
764.224121,-193.855591,0.938000,181,129,132
763.648560,-193.855591,0.938100,181,129,132
762.174438,-193.993652,0.938200,181,129,132
762.686890,-210.882675,0.938300,181,129,132
762.542969,-203.036407,0.938400,181,129,132
762.427124,-197.652161,0.938500,181,129,132
762.613159,-197.122955,0.938600,181,129,132
762.718445,-196.777802,0.938700,181,129,132
756.481567,-225.769867,0.938800,181,129,132
735.071899,-224.849472,0.938900,181,129,132
753.270142,-219.281158,0.939000,181,129,132
734.001404,-218.636902,0.939100,181,129,132
773.840942,-211.918091,0.939200,181,129,132
773.472473,-211.895096,0.939300,181,129,132
773.103882,-211.872086,0.939400,181,129,132
772.735413,-211.849075,0.939500,181,129,132
772.366821,-211.826050,0.939600,181,129,132
771.998352,-211.803055,0.939700,181,129,132
771.629761,-211.780045,0.939800,181,129,132
771.261292,-211.757034,0.939900,181,129,132
770.892761,-211.734024,0.940000,181,129,132
770.524231,-211.711029,0.940100,181,129,132
770.155701,-211.688004,0.940200,181,129,132
769.787170,-211.664993,0.940300,181,129,132
769.418640,-211.641983,0.940400,181,129,132
769.050110,-211.618973,0.940500,181,129,132
768.681580,-211.595978,0.940600,181,129,132
768.313049,-211.572952,0.940700,181,129,132
767.944519,-211.549942,0.940800,181,129,132
767.575989,-211.526932,0.940900,181,129,132
767.207520,-211.503937,0.941000,181,129,132
766.838928,-211.480927,0.941100,181,129,132
766.470459,-211.457901,0.941200,181,129,132
766.101868,-211.434891,0.941300,181,129,132
765.733398,-211.411896,0.941400,181,129,132
765.364868,-211.388885,0.941500,181,129,132
764.996338,-211.365875,0.941600,181,129,132
764.627808,-211.342850,0.941700,181,129,132
764.259277,-211.319855,0.941800,181,129,132
763.890747,-211.296844,0.941900,181,129,132
763.522217,-211.273834,0.942000,181,129,132
763.153687,-211.250824,0.942100,181,129,132
762.785156,-211.227814,0.942200,181,129,132
762.416626,-211.204803,0.942300,181,129,132
762.048096,-211.181793,0.942400,181,129,132
761.679565,-211.158783,0.942500,181,129,132
761.311035,-211.135773,0.942600,181,129,132
760.942505,-211.112778,0.942700,181,129,132
760.573975,-211.089752,0.942800,181,129,132
760.205444,-211.066742,0.942900,181,129,132
759.836914,-211.043732,0.943000,181,129,132
759.468384,-211.020737,0.943100,181,129,132
759.099854,-210.997726,0.943200,181,129,132
758.731323,-210.974701,0.943300,181,129,132
758.362854,-210.951691,0.943400,181,129,132
757.994263,-210.928696,0.943500,181,129,132
757.625793,-210.905685,0.943600,181,129,132
757.257202,-210.882675,0.943700,181,129,132
756.888733,-210.859650,0.943800,181,129,132
756.520142,-210.836639,0.943900,181,129,132
756.151672,-210.813644,0.944000,181,129,132
755.783142,-210.790634,0.944100,181,129,132
755.414612,-210.767624,0.944200,181,129,132
755.046082,-210.744614,0.944300,181,129,132
754.677551,-210.721603,0.944400,181,129,132
754.309021,-210.698593,0.944500,181,129,132
753.940491,-210.675583,0.944600,181,129,132
753.571960,-210.652573,0.944700,181,129,132
753.203430,-210.629578,0.944800,181,129,132
752.834961,-210.606552,0.944900,181,129,132
752.466370,-210.583542,0.945000,181,129,132
752.097900,-210.560532,0.945100,181,129,132
751.729309,-210.537537,0.945200,181,129,132
751.360840,-210.514526,0.945300,181,129,132
750.992249,-210.491501,0.945400,181,129,132
750.623779,-210.468491,0.945500,181,129,132
750.255188,-210.445480,0.945600,181,129,132
749.886719,-210.422485,0.945700,181,129,132
749.518127,-210.399475,0.945800,181,129,132
749.149658,-210.376450,0.945900,181,129,132
748.781067,-210.353439,0.946000,181,129,132
748.412598,-210.330444,0.946100,181,129,132
748.044006,-210.307434,0.946200,181,129,132
747.675537,-210.284424,0.946300,181,129,132
747.307007,-210.261414,0.946400,181,129,132
746.938477,-210.238403,0.946500,181,129,132
746.569946,-210.215393,0.946600,181,129,132
746.201416,-210.192383,0.946700,181,129,132
745.832886,-210.169373,0.946800,181,129,132
745.464355,-210.146378,0.946900,181,129,132
745.095825,-210.123352,0.947000,181,129,132
744.727295,-210.100342,0.947100,181,129,132
744.358826,-210.077332,0.947200,181,129,132
743.990234,-210.054321,0.947300,181,129,132
743.621765,-210.031326,0.947400,181,129,132
743.253174,-210.008301,0.947500,181,129,132
742.884705,-209.985291,0.947600,181,129,132
742.516113,-209.962280,0.947700,181,129,132
742.147644,-209.939285,0.947800,181,129,132
741.779053,-209.916275,0.947900,181,129,132
741.410583,-209.893250,0.948000,181,129,132
741.041992,-209.870239,0.948100,181,129,132
740.673523,-209.847244,0.948200,181,129,132
740.304993,-209.824234,0.948300,181,129,132
739.936462,-209.801224,0.948400,181,129,132
739.567932,-209.778214,0.948500,181,129,132
739.199402,-209.755203,0.948600,181,129,132
738.830872,-209.732193,0.948700,181,129,132
738.462341,-209.709183,0.948800,181,129,132
738.093811,-209.686172,0.948900,181,129,132
737.725281,-209.663162,0.949000,181,129,132
737.356750,-209.640152,0.949100,181,129,132
736.988220,-209.617142,0.949200,181,129,132
736.619690,-209.594131,0.949300,181,129,132
736.251160,-209.571121,0.949400,181,129,132
735.882629,-209.548126,0.949500,181,129,132
735.514099,-209.525101,0.949600,181,129,132
735.145569,-209.502090,0.949700,181,129,132
734.777100,-209.479080,0.949800,181,129,132
734.408508,-209.456085,0.949900,181,129,132
734.040039,-209.433075,0.950000,181,129,132
733.671448,-209.410065,0.950100,181,129,132
733.302979,-209.387039,0.950200,181,129,132
733.043213,-210.284424,0.950300,181,129,132
728.112000,-210.054321,0.950400,181,129,132
735.071899,-224.849472,0.950500,181,129,132
734.801636,-224.366272,0.950600,181,129,132
762.542969,-203.036407,0.950700,181,129,132
762.511353,-202.346115,0.950800,181,129,132
762.511353,-202.346115,0.950900,181,129,132
762.507874,-201.747864,0.951000,181,129,132
762.504395,-201.149628,0.951100,181,129,132
762.500854,-200.390305,0.951200,181,129,132
762.427124,-197.652161,0.951300,181,129,132
642.294189,13.943797,0.951400,181,129,132
641.939758,13.782729,0.951500,181,129,132
641.585266,13.621663,0.951600,181,129,132
641.230774,13.460596,0.951700,181,129,132
640.876282,13.299528,0.951800,181,129,132
640.521729,13.138462,0.951900,181,129,132
640.167297,12.977395,0.952000,181,129,132
639.812805,12.816329,0.952100,181,129,132
639.458313,12.655261,0.952200,181,129,132
639.103821,12.494194,0.952300,181,129,132
638.749329,12.333128,0.952400,181,129,132
638.394897,12.172060,0.952500,181,129,132
638.040405,12.010993,0.952600,181,129,132
637.685852,11.849927,0.952700,181,129,132
637.331360,11.688859,0.952800,181,129,132
636.976868,11.527792,0.952900,181,129,132
636.622437,11.366726,0.953000,181,129,132
636.229309,11.113620,0.953100,181,129,132
635.860779,11.090611,0.953200,181,129,132
635.492249,11.067601,0.953300,181,129,132
635.123779,11.044591,0.953400,181,129,132
634.755188,11.021582,0.953500,181,129,132
634.386719,10.998572,0.953600,181,129,132
634.018127,10.975563,0.953700,181,129,132
633.649658,10.952554,0.953800,181,129,132
633.281067,10.929543,0.953900,181,129,132
632.912598,10.906534,0.954000,181,129,132
632.544006,10.883525,0.954100,181,129,132
632.175537,10.860516,0.954200,181,129,132
631.806946,10.837505,0.954300,181,129,132
631.438477,10.814496,0.954400,181,129,132
631.069885,10.791487,0.954500,181,129,132
630.701416,10.768477,0.954600,181,129,132
630.332825,10.745467,0.954700,181,129,132
629.964355,10.722458,0.954800,181,129,132
629.595825,10.699448,0.954900,181,129,132
629.227295,10.676438,0.955000,181,129,132
628.858765,10.653429,0.955100,181,129,132
628.490234,10.630419,0.955200,181,129,132
628.121704,10.607409,0.955300,181,129,132
627.753174,10.584400,0.955400,181,129,132
627.384705,10.561391,0.955500,181,129,132
627.016113,10.538381,0.955600,181,129,132
626.647644,10.515371,0.955700,181,129,132
626.279053,10.492362,0.955800,181,129,132
625.910583,10.469353,0.955900,181,129,132
625.541992,10.446342,0.956000,181,129,132
625.092773,10.538381,0.956100,181,129,132
624.731262,10.653429,0.956200,181,129,132
624.369751,10.768477,0.956300,181,129,132
624.008240,10.883525,0.956400,181,129,132
623.646729,10.998572,0.956500,181,129,132
623.285217,11.113620,0.956600,181,129,132
622.923706,11.228667,0.956700,181,129,132
622.562195,11.343717,0.956800,181,129,132
622.200684,11.458764,0.956900,181,129,132
621.839233,11.573812,0.957000,181,129,132
621.477722,11.688859,0.957100,181,129,132
621.116211,11.803907,0.957200,181,129,132
620.754639,11.918955,0.957300,181,129,132
620.393127,12.034003,0.957400,181,129,132
620.031677,12.149051,0.957500,181,129,132
619.670166,12.264098,0.957600,181,129,132
619.308655,12.379147,0.957700,181,129,132
618.947144,12.494194,0.957800,181,129,132
618.585632,12.609241,0.957900,181,129,132
618.224060,12.724290,0.958000,181,129,132
617.862610,12.839338,0.958100,181,129,132
617.501099,12.954386,0.958200,181,129,132
617.139587,13.069433,0.958300,181,129,132
616.778076,13.184481,0.958400,181,129,132
616.416565,13.299528,0.958500,181,129,132
616.055115,13.414577,0.958600,181,129,132
615.693542,13.529625,0.958700,181,129,132
615.332031,13.644672,0.958800,181,129,132
614.970520,13.759720,0.958900,181,129,132
614.609009,13.874768,0.959000,181,129,132
614.247559,13.989816,0.959100,181,129,132
613.886047,14.104864,0.959200,181,129,132
613.524536,14.219912,0.959300,181,129,132
613.162964,14.334959,0.959400,181,129,132
612.801453,14.450007,0.959500,181,129,132
612.440002,14.565055,0.959600,181,129,132
612.078491,14.680103,0.959700,181,129,132
611.643250,15.163303,0.959800,181,129,132
611.555481,14.956218,0.959900,181,129,132
611.408081,14.265930,0.960000,181,129,132
611.260681,13.713701,0.960100,181,129,132
611.113281,13.161471,0.960200,181,129,132
610.965881,12.609241,0.960300,181,129,132
610.818420,12.057013,0.960400,181,129,132
610.671021,11.504783,0.960500,181,129,132
610.523621,10.952554,0.960600,181,129,132
610.376221,10.400324,0.960700,181,129,132
610.228821,9.848094,0.960800,181,129,132
610.081360,9.295865,0.960900,181,129,132
609.860291,8.444510,0.961000,181,129,132
609.495300,7.616166,0.961100,181,129,132
609.323242,7.086946,0.961200,181,129,132
609.151306,6.557726,0.961300,181,129,132
608.979309,6.028506,0.961400,181,129,132
608.768738,5.338219,0.961500,181,129,132
608.645874,4.762980,0.961600,181,129,132
608.523071,4.187741,0.961700,181,129,132
608.400269,3.612502,0.961800,181,129,132
608.210693,2.738138,0.961900,181,129,132
608.042236,2.208918,0.962000,181,129,132
607.873779,1.679698,0.962100,181,129,132
607.705322,1.150478,0.962200,181,129,132
607.536804,0.621258,0.962300,181,129,132
607.368347,0.092038,0.962400,181,129,132
607.199890,-0.437182,0.962500,181,129,132
607.031433,-0.966402,0.962600,181,129,132
606.862976,-1.495622,0.962700,181,129,132
606.599670,-2.323966,0.962800,181,129,132
606.515442,-3.083282,0.962900,181,129,132
606.445251,-3.681530,0.963000,181,129,132
606.375122,-4.279779,0.963100,181,129,132
606.245239,-5.338219,0.963200,181,129,132
606.529480,-5.729382,0.963300,181,129,132
606.813843,-6.120544,0.963400,181,129,132
607.098083,-6.511707,0.963500,181,129,132
607.382385,-6.902870,0.963600,181,129,132
607.666687,-7.294033,0.963700,181,129,132
607.950928,-7.685195,0.963800,181,129,132
608.235291,-8.076358,0.963900,181,129,132
608.586243,-8.467520,0.964000,181,129,132
608.779297,-9.387903,0.964100,181,129,132
609.326843,-9.940132,0.964200,181,129,132
609.677795,-10.124208,0.964300,181,129,132
610.028748,-10.308286,0.964400,181,129,132
610.379761,-10.492362,0.964500,181,129,132
610.762329,-10.699448,0.964600,181,129,132
611.120300,-10.837505,0.964700,181,129,132
611.478333,-10.975563,0.964800,181,129,132
611.836304,-11.113620,0.964900,181,129,132
612.545288,-11.435754,0.965000,181,129,132
612.692688,-11.734879,0.965100,181,129,132
612.692688,-12.103031,0.965200,181,129,132
612.541748,-12.655261,0.965300,181,129,132
612.390869,-13.207491,0.965400,181,129,132
612.239929,-13.759720,0.965500,181,129,132
612.089050,-14.311950,0.965600,181,129,132
611.938049,-14.864179,0.965700,181,129,132
611.787170,-15.416409,0.965800,181,129,132
611.636230,-15.968639,0.965900,181,129,132
611.485352,-16.520868,0.966000,181,129,132
611.334412,-17.073097,0.966100,181,129,132
611.067627,-18.062510,0.966200,181,129,132
610.871094,-18.752796,0.966300,181,129,132
610.442932,-20.225409,0.966400,181,129,132
610.442932,-20.225409,0.966500,181,129,132
609.997131,-21.099771,0.966600,181,129,132
609.523376,-21.882095,0.966700,181,129,132
609.203979,-22.181221,0.966800,181,129,132
603.658508,-25.954790,0.966900,181,129,132
603.658508,-25.954790,0.967000,181,129,132
603.423340,-26.414982,0.967100,181,129,132
603.188232,-26.875174,0.967200,181,129,132
602.953003,-27.335363,0.967300,181,129,132
602.717834,-27.795557,0.967400,181,129,132
602.244080,-28.715937,0.967500,181,129,132
601.914124,-28.992054,0.967600,181,129,132
601.584229,-29.268167,0.967700,181,129,132
601.254333,-29.544281,0.967800,181,129,132
600.924377,-29.820398,0.967900,181,129,132
600.594482,-30.096512,0.968000,181,129,132
600.264526,-30.372627,0.968100,181,129,132
599.688965,-30.786798,0.968200,181,129,132
600.882263,-34.882504,0.968300,181,129,132
757.794250,-60.077976,0.968400,181,129,132
757.425720,-60.123997,0.968500,181,129,132
757.057190,-60.170013,0.968600,181,129,132
756.688660,-60.216034,0.968700,181,129,132
756.320129,-60.262051,0.968800,181,129,132
755.951599,-60.308075,0.968900,181,129,132
755.583069,-60.354092,0.969000,181,129,132
754.912720,-60.423119,0.969100,181,129,132
754.558228,-60.584187,0.969200,181,129,132
754.203674,-60.745255,0.969300,181,129,132
753.849243,-60.906319,0.969400,181,129,132
753.494751,-61.067390,0.969500,181,129,132
752.919189,-61.297482,0.969600,181,129,132
752.554138,-61.343502,0.969700,181,129,132
752.189087,-61.389519,0.969800,181,129,132
751.824097,-61.435539,0.969900,181,129,132
751.459045,-61.481560,0.970000,181,129,132
751.094055,-61.527580,0.970100,181,129,132
750.729065,-61.573597,0.970200,181,129,132
750.311401,-61.665638,0.970300,181,129,132
749.960388,-61.849716,0.970400,181,129,132
749.609436,-62.033791,0.970500,181,129,132
749.258423,-62.217865,0.970600,181,129,132
748.907410,-62.401943,0.970700,181,129,132
748.552979,-62.563007,0.970800,181,129,132
748.054565,-62.908154,0.970900,181,129,132
747.693115,-63.023197,0.971000,181,129,132
747.331604,-63.138248,0.971100,181,129,132
746.970093,-63.253296,0.971200,181,129,132
746.261108,-63.460384,0.971300,181,129,132
745.899597,-63.368343,0.971400,181,129,132
745.538086,-63.276306,0.971500,181,129,132
744.937866,-63.092232,0.971600,181,129,132
744.629028,-62.770096,0.971700,181,129,132
744.320190,-62.447960,0.971800,181,129,132
744.011292,-62.125828,0.971900,181,129,132
743.702454,-61.803692,0.972000,181,129,132
743.239197,-61.320492,0.972100,181,129,132
742.895203,-61.090401,0.972200,181,129,132
742.551208,-60.860302,0.972300,181,129,132
742.207275,-60.630203,0.972400,181,129,132
741.863281,-60.400112,0.972500,181,129,132
741.519348,-60.170013,0.972600,181,129,132
741.175415,-59.939919,0.972700,181,129,132
740.831421,-59.709824,0.972800,181,129,132
740.487488,-59.479725,0.972900,181,129,132
740.059326,-59.272640,0.973000,181,129,132
739.697815,-59.180603,0.973100,181,129,132
739.237976,-59.042545,0.973200,181,129,132
738.876526,-58.950508,0.973300,181,129,132
738.515015,-58.858471,0.973400,181,129,132
738.121887,-58.743423,0.973500,181,129,132
737.753357,-58.743423,0.973600,181,129,132
737.135620,-58.720413,0.973700,181,129,132
736.770630,-58.789440,0.973800,181,129,132
736.405640,-58.858471,0.973900,181,129,132
736.040588,-58.927498,0.974000,181,129,132
735.675537,-58.996525,0.974100,181,129,132
735.142090,-59.134586,0.974200,181,129,132
734.780579,-59.226624,0.974300,181,129,132
734.419067,-59.318661,0.974400,181,129,132
734.057556,-59.410698,0.974500,181,129,132
733.696045,-59.502739,0.974600,181,129,132
733.334534,-59.594776,0.974700,181,129,132
732.801086,-59.778851,0.974800,181,129,132
732.432495,-59.801861,0.974900,181,129,132
732.064026,-59.824871,0.975000,181,129,132
731.695435,-59.847878,0.975100,181,129,132
731.298889,-59.916912,0.975200,181,129,132
730.933838,-60.008949,0.975300,181,129,132
730.568848,-60.100986,0.975400,181,129,132
729.923035,-60.262051,0.975500,181,129,132
729.273743,-60.423119,0.975600,181,129,132
728.936829,-60.653214,0.975700,181,129,132
728.599854,-60.883312,0.975800,181,129,132
728.262939,-61.113407,0.975900,181,129,132
727.918945,-61.389519,0.976000,181,129,132
727.641663,-61.780682,0.976100,181,129,132
727.364380,-62.171844,0.976200,181,129,132
727.087097,-62.563007,0.976300,181,129,132
726.767761,-63.046211,0.976400,181,129,132
726.522034,-63.483395,0.976500,181,129,132
726.107910,-64.242706,0.976600,181,129,132
725.876282,-64.702896,0.976700,181,129,132
725.644653,-65.163094,0.976800,181,129,132
725.412964,-65.623283,0.976900,181,129,132
725.181335,-66.083473,0.977000,181,129,132
724.949707,-66.543663,0.977100,181,129,132
724.718018,-67.003860,0.977200,181,129,132
724.486389,-67.464050,0.977300,181,129,132
724.033569,-68.407440,0.977400,181,129,132
722.661255,-70.869461,0.977500,181,129,132
733.706604,-50.759102,0.977600,181,129,132
735.142090,-59.134586,0.977700,181,129,132
758.243469,-60.008949,0.977800,181,129,132
757.794250,-60.077976,0.977900,181,129,132
722.661255,-70.869461,0.978000,181,129,132
722.380493,-71.260620,0.978100,181,129,132
718.695190,-88.701874,0.978200,181,129,132
718.337219,-88.563820,0.978300,181,129,132
717.979248,-88.425758,0.978400,181,129,132
717.621216,-88.287704,0.978500,181,129,132
717.263245,-88.149651,0.978600,181,129,132
716.905212,-88.011589,0.978700,181,129,132
716.441956,-87.804504,0.978800,181,129,132
716.154175,-87.298294,0.978900,181,129,132
720.737915,-78.577667,0.979000,181,129,132
721.032776,-78.945824,0.979100,181,129,132
721.503052,-79.521057,0.979200,181,129,132
721.724182,-80.004257,0.979300,181,129,132
721.945251,-80.487457,0.979400,181,129,132
722.166443,-80.970665,0.979500,181,129,132
722.387512,-81.453865,0.979600,181,129,132
722.608643,-81.937065,0.979700,181,129,132
722.829773,-82.420265,0.979800,181,129,132
723.050903,-82.903465,0.979900,181,129,132
723.433472,-83.754822,0.980000,181,129,132
723.801941,-86.930145,0.980100,181,129,132
716.154175,-87.298294,0.980200,181,129,132
715.908447,-86.838104,0.980300,181,129,132
715.662720,-86.377907,0.980400,181,129,132
715.417114,-85.917717,0.980500,181,129,132
715.045044,-85.273453,0.980600,181,129,132
714.820435,-84.353065,0.980700,181,129,132
714.651978,-83.823845,0.980800,181,129,132
714.465942,-83.225594,0.980900,181,129,132
714.188721,-82.834435,0.981000,181,129,132
713.735901,-82.190170,0.981100,181,129,132
713.384888,-82.006088,0.981200,181,129,132
713.033936,-81.822014,0.981300,181,129,132
712.682983,-81.637939,0.981400,181,129,132
712.128418,-81.384834,0.981500,181,129,132
711.651062,-81.292793,0.981600,181,129,132
711.293091,-81.430855,0.981700,181,129,132
710.935059,-81.568909,0.981800,181,129,132
710.577087,-81.706970,0.981900,181,129,132
709.959351,-81.983086,0.982000,181,129,132
709.640015,-82.282211,0.982100,181,129,132
709.320618,-82.581337,0.982200,181,129,132
708.934509,-82.949486,0.982300,181,129,132
708.580078,-83.110550,0.982400,181,129,132
708.225525,-83.271622,0.982500,181,129,132
707.871033,-83.432686,0.982600,181,129,132
707.516541,-83.593750,0.982700,181,129,132
707.162048,-83.754822,0.982800,181,129,132
706.807617,-83.915886,0.982900,181,129,132
706.453125,-84.076950,0.983000,181,129,132
706.098633,-84.238022,0.983100,181,129,132
705.744080,-84.399086,0.983200,181,129,132
705.389587,-84.560150,0.983300,181,129,132
705.035156,-84.721222,0.983400,181,129,132
704.680664,-84.882294,0.983500,181,129,132
704.326172,-85.043350,0.983600,181,129,132
703.971680,-85.204422,0.983700,181,129,132
703.617188,-85.365494,0.983800,181,129,132
703.262756,-85.526550,0.983900,181,129,132
702.908203,-85.687622,0.984000,181,129,132
702.553711,-85.848694,0.984100,181,129,132
702.199219,-86.009758,0.984200,181,129,132
701.711365,-86.423927,0.984300,181,129,132
701.462158,-86.469948,0.984400,181,129,132
701.237610,-86.354897,0.984500,181,129,132
700.935669,-86.009758,0.984600,181,129,132
700.633850,-85.664619,0.984700,181,129,132
700.332031,-85.319473,0.984800,181,129,132
700.030151,-84.974327,0.984900,181,129,132
699.728333,-84.629189,0.985000,181,129,132
699.426514,-84.284042,0.985100,181,129,132
699.124634,-83.938896,0.985200,181,129,132
698.822815,-83.593750,0.985300,181,129,132
698.520996,-83.248611,0.985400,181,129,132
698.219116,-82.903465,0.985500,181,129,132
697.864685,-82.443268,0.985600,181,129,132
697.618958,-82.006088,0.985700,181,129,132
697.373230,-81.568909,0.985800,181,129,132
697.127625,-81.131729,0.985900,181,129,132
696.881897,-80.694542,0.986000,181,129,132
696.425659,-79.820183,0.986100,181,129,132
696.134338,-79.452034,0.986200,181,129,132
695.843018,-79.083878,0.986300,181,129,132
695.551697,-78.715729,0.986400,181,129,132
695.260376,-78.347572,0.986500,181,129,132
694.912964,-77.910385,0.986600,181,129,132
694.583008,-77.634277,0.986700,181,129,132
694.253052,-77.358154,0.986800,181,129,132
693.923157,-77.082047,0.986900,181,129,132
693.593201,-76.805931,0.987000,181,129,132
693.084290,-76.391754,0.987100,181,129,132
692.729797,-76.184677,0.987200,181,129,132
692.350769,-76.115646,0.987300,181,129,132
691.996338,-76.184677,0.987400,181,129,132
691.645325,-76.368752,0.987500,181,129,132
691.294312,-76.552826,0.987600,181,129,132
690.943359,-76.736900,0.987700,181,129,132
690.592407,-76.920975,0.987800,181,129,132
690.027283,-77.243111,0.987900,181,129,132
689.683350,-77.312134,0.988000,181,129,132
689.265686,-77.312134,0.988100,181,129,132
688.879639,-77.105057,0.988200,181,129,132
688.563721,-76.805931,0.988300,181,129,132
688.247864,-76.506805,0.988400,181,129,132
687.931946,-76.207680,0.988500,181,129,132
687.616089,-75.908554,0.988600,181,129,132
687.300232,-75.609428,0.988700,181,129,132
686.984314,-75.310303,0.988800,181,129,132
686.640381,-74.919144,0.988900,181,129,132
686.292908,-74.712067,0.989000,181,129,132
685.945435,-74.504974,0.989100,181,129,132
685.597961,-74.297890,0.989200,181,129,132
685.250488,-74.090797,0.989300,181,129,132
684.903015,-73.883720,0.989400,181,129,132
684.439697,-73.607597,0.989500,181,129,132
683.874634,-73.331490,0.989600,181,129,132
683.323608,-73.285469,0.989700,181,129,132
682.955078,-73.331490,0.989800,181,129,132
682.586548,-73.377502,0.989900,181,129,132
682.218018,-73.423523,0.990000,181,129,132
681.849487,-73.469543,0.990100,181,129,132
681.480957,-73.515564,0.990200,181,129,132
680.961487,-73.538574,0.990300,181,129,132
680.596497,-73.492554,0.990400,181,129,132
680.231506,-73.446541,0.990500,181,129,132
679.719116,-73.354492,0.990600,181,129,132
679.066284,-73.124397,0.990700,181,129,132
678.504700,-72.940323,0.990800,181,129,132
678.065918,-72.825272,0.990900,181,129,132
723.801941,-86.930145,0.991000,181,129,132
723.644043,-87.482368,0.991100,181,129,132
723.450989,-88.126633,0.991200,181,129,132
723.100037,-88.310707,0.991300,181,129,132
722.749023,-88.494789,0.991400,181,129,132
722.398071,-88.678864,0.991500,181,129,132
722.047058,-88.862946,0.991600,181,129,132
721.566223,-89.116051,0.991700,181,129,132
721.197693,-89.162064,0.991800,181,129,132
720.829163,-89.208084,0.991900,181,129,132
720.460632,-89.254105,0.992000,181,129,132
719.965759,-89.300125,0.992100,181,129,132
718.695190,-88.701874,0.992200,181,129,132
722.380493,-71.260620,0.992300,181,129,132
722.152344,-71.720818,0.992400,181,129,132
721.924194,-72.181007,0.992500,181,129,132
721.696045,-72.641197,0.992600,181,129,132
721.467957,-73.101395,0.992700,181,129,132
721.239807,-73.561577,0.992800,181,129,132
721.011719,-74.021774,0.992900,181,129,132
720.622070,-74.873123,0.993000,181,129,132
720.453613,-75.402351,0.993100,181,129,132
720.285156,-75.931572,0.993200,181,129,132
720.116699,-76.460785,0.993300,181,129,132
719.923645,-77.105057,0.993400,181,129,132
719.948242,-77.634277,0.993500,181,129,132
720.737915,-78.577667,0.993600,181,129,132
681.923218,-30.878838,0.993700,181,129,132
671.018311,-27.565458,0.993800,181,129,132
661.619141,-13.552634,0.993900,181,129,132
661.608582,-13.345549,0.994000,181,129,132
661.583984,-12.793318,0.994100,181,129,132
661.583984,-12.793318,0.994200,181,129,132
661.454163,-12.218079,0.994300,181,129,132
661.324280,-11.642840,0.994400,181,129,132
661.194397,-11.067601,0.994500,181,129,132
661.064514,-10.492362,0.994600,181,129,132
660.934692,-9.917123,0.994700,181,129,132
660.804810,-9.341884,0.994800,181,129,132
660.548645,-8.260434,0.994900,181,129,132
660.127441,-8.099367,0.995000,181,129,132
659.762451,-8.168396,0.995100,181,129,132
659.397400,-8.237425,0.995200,181,129,132
659.032410,-8.306453,0.995300,181,129,132
658.376099,-8.375483,0.995400,181,129,132
658.025085,-8.559558,0.995500,181,129,132
657.674072,-8.743635,0.995600,181,129,132
657.323120,-8.927711,0.995700,181,129,132
656.972107,-9.111788,0.995800,181,129,132
656.621216,-9.295865,0.995900,181,129,132
656.270203,-9.479941,0.996000,181,129,132
655.919189,-9.664017,0.996100,181,129,132
655.568237,-9.848094,0.996200,181,129,132
655.111938,-10.009161,0.996300,181,129,132
654.596069,-10.331295,0.996400,181,129,132
654.241516,-10.492362,0.996500,181,129,132
653.887024,-10.653429,0.996600,181,129,132
653.532532,-10.814496,0.996700,181,129,132
653.178040,-10.975563,0.996800,181,129,132
652.823608,-11.136629,0.996900,181,129,132
652.469116,-11.297697,0.997000,181,129,132
652.114624,-11.458764,0.997100,181,129,132
651.760132,-11.619830,0.997200,181,129,132
651.166931,-11.872936,0.997300,181,129,132
650.822998,-11.642840,0.997400,181,129,132
650.479004,-11.412745,0.997500,181,129,132
650.135071,-11.182649,0.997600,181,129,132
649.791138,-10.952554,0.997700,181,129,132
649.159363,-10.584400,0.997800,181,129,132
648.868042,-10.216248,0.997900,181,129,132
648.576721,-9.848094,0.998000,181,129,132
648.285400,-9.479941,0.998100,181,129,132
647.994141,-9.111788,0.998200,181,129,132
647.702820,-8.743635,0.998300,181,129,132
647.211426,-8.145387,0.998400,181,129,132
646.495483,-7.892281,0.998500,181,129,132
646.169006,-7.616166,0.998600,181,129,132
645.842651,-7.340052,0.998700,181,129,132
645.516174,-7.063937,0.998800,181,129,132
645.189819,-6.787822,0.998900,181,129,132
644.533508,-6.258602,0.999000,181,129,132
644.168457,-6.189573,0.999100,181,129,132
643.803406,-6.120544,0.999200,181,129,132
643.438416,-6.051516,0.999300,181,129,132
643.006714,-5.982487,0.999400,181,129,132
642.704895,-6.327631,0.999500,181,129,132
642.195984,-6.902870,0.999600,181,129,132
642.009949,-7.731215,0.999700,181,129,132
641.785278,-8.421501,0.999800,181,129,132
641.501038,-8.812664,0.999900,181,129,132
641.216675,-9.203827,1.000000,181,129,132
640.932434,-9.594989,1.000100,181,129,132
640.648132,-9.986152,1.000200,181,129,132
640.153259,-10.653429,1.000300,181,129,132
640.395386,-11.113620,1.000400,181,129,132
640.753418,-11.780898,1.000500,181,129,132
640.774475,-12.839338,1.000600,181,129,132
640.483215,-13.299528,1.000700,181,129,132
640.174316,-13.621663,1.000800,181,129,132
639.865417,-13.943797,1.000900,181,129,132
639.556580,-14.265930,1.001000,181,129,132
639.247742,-14.588065,1.001100,181,129,132
638.938843,-14.910199,1.001200,181,129,132
638.630005,-15.232332,1.001300,181,129,132
638.321167,-15.554466,1.001400,181,129,132
638.012268,-15.876600,1.001500,181,129,132
637.703430,-16.198734,1.001600,181,129,132
637.394531,-16.520868,1.001700,181,129,132
637.085693,-16.843002,1.001800,181,129,132
636.776855,-17.165134,1.001900,181,129,132
636.467957,-17.487270,1.002000,181,129,132
636.159119,-17.809404,1.002100,181,129,132
635.850281,-18.131536,1.002200,181,129,132
635.551941,-18.522699,1.002300,181,129,132
635.218506,-18.775806,1.002400,181,129,132
634.885071,-19.028912,1.002500,181,129,132
634.551636,-19.282015,1.002600,181,129,132
634.218201,-19.535120,1.002700,181,129,132
633.884766,-19.788227,1.002800,181,129,132
633.551331,-20.041332,1.002900,181,129,132
633.217896,-20.294436,1.003000,181,129,132
632.884460,-20.547543,1.003100,181,129,132
632.551086,-20.800648,1.003200,181,129,132
632.217651,-21.053753,1.003300,181,129,132
631.884216,-21.306858,1.003400,181,129,132
631.276978,-21.721031,1.003500,181,129,132
630.954102,-22.020155,1.003600,181,129,132
630.631226,-22.319279,1.003700,181,129,132
630.308289,-22.618402,1.003800,181,129,132
629.960876,-22.894518,1.003900,181,129,132
629.599365,-23.009565,1.004000,181,129,132
629.044739,-23.216652,1.004100,181,129,132
628.609558,-23.745872,1.004200,181,129,132
628.423584,-24.551207,1.004300,181,129,132
628.598999,-25.218483,1.004400,181,129,132
628.785034,-25.747704,1.004500,181,129,132
629.114990,-26.645079,1.004600,181,129,132
628.928955,-27.726526,1.004700,181,129,132
619.807007,-51.357353,1.004800,181,129,132
619.943909,-50.805119,1.004900,181,129,132
620.080750,-50.252892,1.005000,181,129,132
620.217651,-49.700665,1.005100,181,129,132
620.354553,-49.148434,1.005200,181,129,132
620.491455,-48.596203,1.005300,181,129,132
620.719604,-47.583782,1.005400,181,129,132
620.614319,-47.008545,1.005500,181,129,132
620.452820,-46.134178,1.005600,181,129,132
620.463379,-45.535931,1.005700,181,129,132
620.473877,-44.937679,1.005800,181,129,132
620.487915,-43.764191,1.005900,181,129,132
620.280884,-43.257984,1.006000,181,129,132
620.073792,-42.751774,1.006100,181,129,132
619.866699,-42.245564,1.006200,181,129,132
619.596436,-41.601295,1.006300,181,129,132
619.389404,-41.095085,1.006400,181,129,132
619.182312,-40.588871,1.006500,181,129,132
618.975220,-40.082664,1.006600,181,129,132
618.729492,-39.530434,1.006700,181,129,132
618.455750,-39.116264,1.006800,181,129,132
618.181946,-38.702091,1.006900,181,129,132
617.908203,-38.287918,1.007000,181,129,132
617.634460,-37.873745,1.007100,181,129,132
617.213257,-37.275497,1.007200,181,129,132
616.865845,-37.068409,1.007300,181,129,132
616.518372,-36.861324,1.007400,181,129,132
616.170898,-36.654236,1.007500,181,129,132
615.823425,-36.447151,1.007600,181,129,132
615.353088,-36.217056,1.007700,181,129,132
615.002136,-35.986961,1.007800,181,129,132
545.697876,-39.438393,1.007900,181,129,132
545.982239,-39.047230,1.008000,181,129,132
