X,Y,Z,R,G,B
434.883484,-610.604858,0.154200,95,97,91
488.197113,-748.547180,0.154300,95,97,91
488.863953,-748.156006,0.154400,95,97,91
496.536377,-742.426697,0.154500,95,97,91
459.848572,-11.044591,0.154600,95,97,91
353.158112,-680.047729,0.154700,95,97,91
385.023438,-819.899841,0.154800,95,97,91
386.673065,-787.272278,0.154900,95,97,91
504.994934,-711.593811,0.155000,95,97,91
579.686707,-743.738220,0.155100,95,97,91
474.979248,-706.416687,0.155200,95,97,91
447.897736,-622.293701,0.155300,95,97,91
478.829468,-680.093689,0.155400,95,97,91
466.745270,-665.827820,0.155500,95,97,91
682.853271,-700.986450,0.155600,95,97,91
843.826111,-820.682190,0.155700,95,97,91
864.316223,-804.230286,0.155800,95,97,91
401.449249,-832.348083,0.155900,95,97,91
1685.377808,-860.396667,0.156000,95,97,91
1680.074585,-847.097168,0.156100,95,97,91
1728.088379,-714.032837,0.156200,95,97,91
479.742035,-680.461853,0.156300,95,97,91
481.398651,-679.794617,0.156400,95,97,91
1112.837158,-862.099426,0.156500,95,97,91
428.471100,-662.905579,0.156600,95,97,91
442.766449,-657.958557,0.156700,95,97,91
447.497620,-592.979492,0.156800,95,97,91
444.921448,-596.753113,0.156900,95,97,91
507.265778,-543.946106,0.157000,95,97,91
507.255249,-542.979736,0.157100,95,97,91
430.762970,-561.594421,0.157200,95,97,91
1475.383911,-691.851624,0.157300,95,97,91
477.057037,-669.992554,0.157400,95,97,91
939.801147,-670.774902,0.157500,95,97,91
997.937256,-247.260788,0.157600,95,97,91
459.852081,-581.635803,0.157700,95,97,91
452.597351,-584.949158,0.157800,95,97,91
435.483643,-583.269470,0.157900,95,97,91
823.855408,-183.892456,0.158000,95,97,91
775.371277,-255.130066,0.158100,95,97,91
796.138611,-245.857208,0.158200,95,97,91
1083.081055,-189.230667,0.158300,95,97,91
646.488403,-309.271576,0.158400,95,97,91
620.351013,-294.246307,0.158500,95,97,91
256.431946,-361.227173,0.158600,95,97,91
399.838257,-571.465576,0.158700,95,97,91
259.004608,-368.728271,0.158800,95,97,91
458.255096,-623.490173,0.158900,95,97,91
453.643250,-643.646606,0.159000,95,97,91
281.411072,-591.506897,0.159100,95,97,91
457.458405,-615.851074,0.159200,95,97,91
1015.738892,-187.205826,0.159300,95,97,91
1042.543091,-124.826889,0.159400,95,97,91
1042.269409,-114.265503,0.159500,95,97,91
404.228973,-569.118591,0.159600,95,97,91
469.019623,-588.170532,0.159700,95,97,91
465.029022,-606.417114,0.159800,95,97,91
465.723938,-597.282349,0.159900,95,97,91
626.545837,-295.764954,0.160000,95,97,91
998.990234,-246.915649,0.160100,95,97,91
1055.631104,-234.398438,0.160200,95,97,91
438.565247,-77.289131,0.160300,95,97,91
926.962402,1.610670,0.160400,95,97,91
981.016602,-32.190384,0.160500,95,97,91
983.712036,-20.041332,0.160600,95,97,91
977.071594,-231.568268,0.160700,95,97,91
977.822693,-231.131088,0.160800,95,97,91
411.557434,-574.111633,0.160900,95,97,91
442.633057,-607.199463,0.161000,95,97,91
448.189056,-603.241760,0.161100,95,97,91
474.989777,-659.109009,0.161200,95,97,91
426.796906,-612.008423,0.161300,95,97,91
427.453247,-611.663269,0.161400,95,97,91
459.623932,-568.267212,0.161500,95,97,91
459.820496,-568.244263,0.161600,95,97,91
460.504913,-567.807068,0.161700,95,97,91
1030.746704,-230.647888,0.161800,95,97,91
457.107422,-614.585449,0.161900,95,97,91
394.906982,-182.488861,0.162000,95,97,91
379.846527,-516.702820,0.162100,95,97,91
433.100494,-594.244995,0.162200,95,97,91
818.443359,-62.862133,0.162300,95,97,91
818.116882,-61.895733,0.162400,95,97,91
451.446136,-626.596497,0.162500,95,97,91
451.670746,-626.987671,0.162600,95,97,91
452.393799,-628.368225,0.162700,95,97,91
452.699127,-628.851440,0.162800,95,97,91
452.962372,-629.288574,0.162900,95,97,91
594.954224,-744.727600,0.163000,95,97,91
586.495605,-482.625641,0.163100,95,97,91
585.769165,-482.211487,0.163200,95,97,91
512.109253,-526.320801,0.163300,95,97,91
942.900269,6.557726,0.163400,95,97,91
942.682678,7.386070,0.163500,95,97,91
999.593933,-230.877975,0.163600,95,97,91
892.057556,2.208918,0.163700,95,97,91
892.541931,2.323966,0.163800,95,97,91
879.001160,21.513945,0.163900,95,97,91
873.950562,24.413149,0.164000,95,97,91
493.682892,-431.705475,0.164100,95,97,91
680.754456,-119.051498,0.164200,95,97,91
684.264221,-116.612473,0.164300,95,97,91
720.116699,-85.917717,0.164400,95,97,91
726.774719,-83.662788,0.164500,95,97,91
516.475403,-720.613586,0.164600,95,97,91
1533.986816,-865.044617,0.164700,95,97,91
360.391785,-523.007446,0.164800,95,97,91
417.383667,10.607409,0.164900,95,97,91
403.172546,-235.387848,0.165000,95,97,91
403.193604,-234.766602,0.165100,95,97,91
453.397583,-423.583099,0.165200,95,97,91
470.265594,-284.743378,0.165300,95,97,91
468.524750,-282.672516,0.165400,95,97,91
1534.495728,-866.149109,0.165500,95,97,91
530.093445,-508.488373,0.165600,95,97,91
939.141296,-265.323303,0.165700,95,97,91
1322.353760,-604.438293,0.165800,95,97,91
453.029053,-421.995453,0.165900,95,97,91
452.790375,-421.420197,0.166000,95,97,91
434.230652,-722.431335,0.166100,95,97,91
442.885773,-720.452515,0.166200,95,97,91
440.867645,-719.371033,0.166300,95,97,91
332.341583,-169.971649,0.166400,95,97,91
351.768250,-147.445297,0.166500,95,97,91
378.498749,-108.467094,0.166600,95,97,91
1077.591797,-233.155930,0.166700,95,97,91
583.266663,-766.241516,0.166800,95,97,91
464.200684,-589.574097,0.166900,95,97,91
363.189056,-835.845520,0.167000,95,97,91
386.985413,-834.625977,0.167100,95,97,91
323.093292,-832.647156,0.167200,95,97,91
391.871063,-173.377090,0.167300,95,97,91
378.667236,-168.245941,0.167400,95,97,91
375.999786,-160.307632,0.167500,95,97,91
369.934875,-158.766006,0.167600,95,97,91
359.395020,-149.838287,0.167700,95,97,91
359.233521,-149.815292,0.167800,95,97,91
1214.666504,-852.780518,0.167900,95,97,91
1253.414551,-847.787476,0.168000,95,97,91
1252.716064,-847.396301,0.168100,95,97,91
1277.288086,-840.447388,0.168200,95,97,91
1034.758423,-810.742004,0.168300,95,97,91
1035.600830,-810.189819,0.168400,95,97,91
1035.134033,-810.074829,0.168500,95,97,91
1111.622681,-777.033020,0.168600,95,97,91
1111.517334,-776.710938,0.168700,95,97,91
1125.753174,-771.027527,0.168800,95,97,91
1586.542236,-740.217712,0.168900,95,97,91
1529.634644,-779.495056,0.169000,95,97,91
1679.642822,-861.754211,0.169100,95,97,91
1006.251953,-223.261810,0.169200,95,97,91
904.510315,-73.078377,0.169300,95,97,91
1124.931763,-30.165541,0.169400,95,97,91
1149.458252,-8.950721,0.169500,95,97,91
1142.098145,25.885761,0.169600,95,97,91
465.860840,-620.337891,0.169700,95,97,91
456.707306,-610.880920,0.169800,95,97,91
484.371399,-565.805237,0.169900,95,97,91
448.922607,-603.034729,0.170000,95,97,91
614.580994,-25.908772,0.170100,95,97,91
901.014526,12.724290,0.170200,95,97,91
397.058502,-683.384155,0.170300,95,97,91
463.800568,-618.888306,0.170400,95,97,91
297.485901,-519.003784,0.170500,95,97,91
783.812256,-818.289185,0.170600,95,97,91
279.915894,-436.100311,0.170700,95,97,91
439.762054,-672.569580,0.170800,95,97,91
450.673981,-668.865051,0.170900,95,97,91
455.745605,-622.339722,0.171000,95,97,91
456.293152,-617.415710,0.171100,95,97,91
469.946228,-585.317322,0.171200,95,97,91
560.210876,-428.645203,0.171300,95,97,91
398.034210,-130.395218,0.171400,95,97,91
469.468903,-585.064209,0.171500,95,97,91
471.304504,-590.793579,0.171600,95,97,91
1078.816772,-35.825893,0.171700,95,97,91
1100.528320,-31.592134,0.171800,95,97,91
454.948914,-642.219971,0.171900,95,97,91
262.974182,-675.698914,0.172000,95,97,91
268.547729,-669.233215,0.172100,95,97,91
245.025131,-602.183350,0.172200,95,97,91
233.344559,-595.855713,0.172300,95,97,91
390.712830,-540.126587,0.172400,95,97,91
859.974609,-802.527649,0.172500,95,97,91
854.222107,-781.496887,0.172600,95,97,91
861.441711,-754.943909,0.172700,95,97,91
442.289124,-728.344849,0.172800,95,97,91
440.232391,-727.378418,0.172900,95,97,91
441.734558,-726.895203,0.173000,95,97,91
292.091370,-662.491394,0.173100,95,97,91
292.059784,-662.054260,0.173200,95,97,91
374.750305,-522.156067,0.173300,95,97,91
456.226471,-652.919434,0.173400,95,97,91
459.202759,-657.038147,0.173500,95,97,91
459.876648,-654.668152,0.173600,95,97,91
380.552002,-537.273376,0.173700,95,97,91
453.376526,-575.193115,0.173800,95,97,91
1612.588501,-586.053589,0.173900,95,97,91
429.309906,-594.843323,0.174000,95,97,91
894.700439,-2.991244,0.174100,95,97,91
470.248047,-586.444824,0.174200,95,97,91
403.397156,-48.297077,0.174300,95,97,91
1694.636597,-805.081726,0.174400,95,97,91
494.005798,-696.821655,0.174500,95,97,91
976.538086,-666.356995,0.174600,95,97,91
1072.060425,-653.793762,0.174700,95,97,91
1071.435669,-621.120239,0.174800,95,97,91
1759.322021,-694.451721,0.174900,95,97,91
838.070068,-829.724915,0.175000,95,97,91
452.246368,-600.411621,0.175100,95,97,91
441.359009,-580.784424,0.175200,95,97,91
1327.811401,-553.034912,0.175300,95,97,91
468.324677,-643.186401,0.175400,95,97,91
472.389008,-650.917603,0.175500,95,97,91
471.258850,-648.018372,0.175600,95,97,91
470.300690,-645.671387,0.175700,95,97,91
1510.608154,-522.340149,0.175800,95,97,91
464.572723,-633.223267,0.175900,95,97,91
464.790344,-631.566589,0.176000,95,97,91
466.948853,-624.755676,0.176100,95,97,91
539.461060,-547.397583,0.176200,95,97,91
1543.515869,-523.789734,0.176300,95,97,91
1472.790161,-523.513672,0.176400,95,97,91
1600.525269,-599.261169,0.176500,95,97,91
470.950012,-652.367249,0.176600,95,97,91
471.055298,-650.710510,0.176700,95,97,91
472.564514,-649.606079,0.176800,95,97,91
472.052063,-648.616638,0.176900,95,97,91
471.785339,-647.811279,0.177000,95,97,91
471.311523,-646.361755,0.177100,95,97,91
468.587921,-643.370422,0.177200,95,97,91
441.151947,-590.793579,0.177300,95,97,91
441.267761,-590.563538,0.177400,95,97,91
441.015045,-590.402466,0.177500,95,97,91
440.418365,-590.034302,0.177600,95,97,91
440.277985,-589.965271,0.177700,95,97,91
1550.594971,-875.675049,0.177800,95,97,91
1555.438599,-872.361694,0.177900,95,97,91
232.656662,-575.492249,0.178000,95,97,91
1557.663818,-799.720459,0.178100,95,97,91
457.844482,-609.040161,0.178200,95,97,91
450.828400,-603.563904,0.178300,95,97,91
1690.874146,-805.288818,0.178400,95,97,91
1688.224243,-809.522522,0.178500,95,97,91
484.876831,-567.093750,0.178600,95,97,91
501.070984,-566.311462,0.178700,95,97,91
389.038635,-547.029419,0.178800,95,97,91
470.040985,-588.975830,0.178900,95,97,91
1319.430054,-572.431946,0.179000,95,97,91
1331.124634,-577.563110,0.179100,95,97,91
1319.212524,-572.316956,0.179200,95,97,91
1319.630127,-572.501038,0.179300,95,97,91
1330.963257,-577.402100,0.179400,95,97,91
957.571228,-836.236633,0.179500,95,97,91
958.395996,-835.799500,0.179600,95,97,91
958.009949,-835.569336,0.179700,95,97,91
1035.218262,-810.028748,0.179800,95,97,91
1035.319946,-809.959717,0.179900,95,97,91
457.928711,-621.925537,0.180000,95,97,91
459.669556,-599.284119,0.180100,95,97,91
463.407501,-617.645752,0.180200,95,97,91
473.098022,-652.689331,0.180300,95,97,91
466.099487,-617.898865,0.180400,95,97,91
474.270264,-653.310608,0.180500,95,97,91
473.698181,-652.206177,0.180600,95,97,91
481.647827,-735.247681,0.180700,95,97,91
440.544739,-728.758911,0.180800,95,97,91
432.917969,-724.548218,0.180900,95,97,91
432.861816,-723.144653,0.181000,95,97,91
417.752197,-755.887268,0.181100,95,97,91
419.917755,-755.864197,0.181200,95,97,91
419.594818,-753.655334,0.181300,95,97,91
426.035309,-736.835327,0.181400,95,97,91
428.846619,-729.817444,0.181500,95,97,91
440.723724,-712.951355,0.181600,95,97,91
441.962708,-712.284119,0.181700,95,97,91
440.425415,-711.662903,0.181800,95,97,91
441.702972,-711.432739,0.181900,95,97,91
449.108612,-698.501343,0.182000,95,97,91
450.509033,-697.995178,0.182100,95,97,91
448.722565,-697.650024,0.182200,95,97,91
450.038696,-696.867737,0.182300,95,97,91
460.048615,-675.583862,0.182400,95,97,91
459.213287,-668.036682,0.182500,95,97,91
457.988373,-667.530518,0.182600,95,97,91
457.065308,-651.745972,0.182700,95,97,91
458.286682,-633.246216,0.182800,95,97,91
451.435608,-617.001526,0.182900,95,97,91
450.758240,-577.839233,0.183000,95,97,91
464.811401,-652.206177,0.183100,95,97,91
438.979370,-585.915588,0.183200,95,97,91
467.664856,-656.969116,0.183300,95,97,91
466.833038,-655.220398,0.183400,95,97,91
465.604614,-653.333618,0.183500,95,97,91
442.039917,-582.763245,0.183600,95,97,91
441.250214,-582.602173,0.183700,95,97,91
441.239685,-581.796875,0.183800,95,97,91
441.741577,-581.290649,0.183900,95,97,91
443.622833,-570.062012,0.184000,95,97,91
450.445831,-544.889526,0.184100,95,97,91
450.221222,-543.692993,0.184200,95,97,91
482.240967,-565.391052,0.184300,95,97,91
508.739899,-544.061157,0.184400,95,97,91
508.508209,-543.969177,0.184500,95,97,91
510.129730,-714.539062,0.184600,95,97,91
509.132935,-714.515991,0.184700,95,97,91
507.476349,-713.595703,0.184800,95,97,91
508.662659,-713.848816,0.184900,95,97,91
509.280396,-713.457581,0.185000,95,97,91
485.048859,-707.912292,0.185100,95,97,91
484.424072,-707.590210,0.185200,95,97,91
485.947327,-707.429138,0.185300,95,97,91
485.245331,-707.152954,0.185400,95,97,91
423.266052,-679.127319,0.185500,95,97,91
419.215759,-672.063354,0.185600,95,97,91
418.706848,-667.668579,0.185700,95,97,91
418.412048,-667.484497,0.185800,95,97,91
418.169861,-667.346436,0.185900,95,97,91
419.738739,-666.403076,0.186000,95,97,91
398.009674,-687.916931,0.186100,95,97,91
450.958282,-606.371094,0.186200,95,97,91
446.230591,-604.737427,0.186300,95,97,91
428.836090,-613.481018,0.186400,95,97,91
428.822052,-612.675720,0.186500,95,97,91
440.576324,-536.329956,0.186600,95,97,91
398.350098,-498.617279,0.186700,95,97,91
399.827728,-498.410217,0.186800,95,97,91
482.026917,-735.316650,0.186900,95,97,91
421.265503,-594.751221,0.187000,95,97,91
421.630493,-594.682251,0.187100,95,97,91
455.647339,-699.030640,0.187200,95,97,91
340.715942,-507.015778,0.187300,95,97,91
518.058350,-726.112854,0.187400,95,97,91
506.865631,-545.971008,0.187500,95,97,91
437.631622,-589.021851,0.187600,95,97,91
451.807648,-626.021301,0.187700,95,97,91
450.579224,-548.686096,0.187800,95,97,91
425.712372,-736.766296,0.187900,95,97,91
472.890930,-567.346863,0.188000,95,97,91
482.848206,-565.137939,0.188100,95,97,91
448.999817,-521.511841,0.188200,95,97,91
457.876038,-621.166260,0.188300,95,97,91
460.045105,-698.064209,0.188400,95,97,91
475.754913,-706.255615,0.188500,95,97,91
397.957031,-686.720459,0.188600,95,97,91
399.157349,-663.503845,0.188700,95,97,91
400.817474,-662.353333,0.188800,95,97,91
425.736938,-523.053467,0.188900,95,97,91
452.046326,-581.428711,0.189000,95,97,91
458.795624,-581.405701,0.189100,95,97,91
458.946533,-580.531372,0.189200,95,97,91
470.648163,-561.893555,0.189300,95,97,91
430.127716,-527.655334,0.189400,95,97,91
420.303802,-515.966492,0.189500,95,97,91
481.830383,-561.709534,0.189600,95,97,91
551.366211,-608.902100,0.189700,95,97,91
380.236115,-529.335083,0.189800,95,97,91
385.820160,-533.798889,0.189900,95,97,91
391.242798,-210.606552,0.190000,95,97,91
393.303009,-183.271179,0.190100,95,97,91
396.419739,-178.853363,0.190200,95,97,91
668.466675,-83.386665,0.190300,95,97,91
1611.556519,-584.696045,0.190400,95,97,91
1611.812744,-581.842896,0.190500,95,97,91
1614.350342,-584.857117,0.190600,95,97,91
1614.476562,-585.133301,0.190700,95,97,91
1614.789062,-584.627014,0.190800,95,97,91
1614.989136,-584.857117,0.190900,95,97,91
1615.136475,-584.281860,0.191000,95,97,91
1615.399658,-584.442993,0.191100,95,97,91
1615.371704,-583.844727,0.191200,95,97,91
1615.687500,-583.982788,0.191300,95,97,91
1615.512085,-583.384521,0.191400,95,97,91
1615.820923,-583.453613,0.191500,95,97,91
1615.824341,-582.855286,0.191600,95,97,91
1615.512085,-582.901306,0.191700,95,97,91
1615.694580,-582.280090,0.191800,95,97,91
1615.375244,-582.441101,0.191900,95,97,91
1615.371704,-581.796875,0.192000,95,97,91
1615.122559,-581.980957,0.192100,95,97,91
1614.953979,-581.428711,0.192200,95,97,91
1614.764404,-581.658813,0.192300,95,97,91
1614.441650,-581.152588,0.192400,95,97,91
1614.332764,-581.405701,0.192500,95,97,91
1613.883423,-580.991516,0.192600,95,97,91
1613.834351,-581.290649,0.192700,95,97,91
1613.311401,-581.014587,0.192800,95,97,91
1612.700684,-581.152588,0.192900,95,97,91
1613.343018,-581.290649,0.193000,95,97,91
1612.848145,-581.428711,0.193100,95,97,91
1612.402344,-581.704834,0.193200,95,97,91
1612.240967,-581.428711,0.193300,95,97,91
1612.068970,-582.049988,0.193400,95,97,91
1609.131348,-577.678162,0.193500,95,97,91
1608.429321,-576.803772,0.193600,95,97,91
1609.643677,-576.090454,0.193700,95,97,91
1610.194702,-577.033875,0.193800,95,97,91
1611.005493,-575.515259,0.193900,95,97,91
1611.367065,-576.550659,0.194000,95,97,91
1612.581421,-576.274597,0.194100,95,97,91
1612.427002,-575.193115,0.194200,95,97,91
1613.872925,-575.124084,0.194300,95,97,91
1613.848511,-576.205566,0.194400,95,97,91
1615.112061,-576.366638,0.194500,95,97,91
1615.364746,-575.308167,0.194600,95,97,91
1616.750977,-575.722351,0.194700,95,97,91
1616.329834,-576.688782,0.194800,95,97,91
1617.445923,-577.263977,0.194900,95,97,91
1618.053101,-576.343567,0.195000,95,97,91
1619.228882,-577.148987,0.195100,95,97,91
1618.463745,-577.977295,0.195200,95,97,91
1619.327148,-578.874695,0.195300,95,97,91
1620.229248,-578.207397,0.195400,95,97,91
1620.008179,-579.887085,0.195500,95,97,91
1621.015381,-579.380859,0.195600,95,97,91
1621.587524,-580.646423,0.195700,95,97,91
1620.513550,-580.991516,0.195800,95,97,91
1621.927979,-582.049988,0.195900,95,97,91
1620.811890,-582.165039,0.196000,95,97,91
1622.012207,-583.430542,0.196100,95,97,91
1620.857544,-583.407532,0.196200,95,97,91
1620.703003,-584.604065,0.196300,95,97,91
1621.815552,-584.811157,0.196400,95,97,91
1620.345093,-585.754517,0.196500,95,97,91
1621.408569,-586.122681,0.196600,95,97,91
1619.755493,-586.835938,0.196700,95,97,91
1620.738159,-587.388184,0.196800,95,97,91
1619.007812,-587.802368,0.196900,95,97,91
1619.850220,-588.515686,0.197000,95,97,91
1618.790283,-589.482056,0.197100,95,97,91
1618.102173,-588.607666,0.197200,95,97,91
1675.508301,-859.430298,0.197300,95,97,91
377.028137,-529.657166,0.197400,95,97,91
606.515442,-775.859558,0.197500,95,97,91
376.399902,-525.860657,0.197600,95,97,91
377.628326,-526.734985,0.197700,95,97,91
379.835999,-528.575745,0.197800,95,97,91
378.814636,-531.175781,0.197900,95,97,91
1240.937256,-622.201660,0.198000,95,97,91
377.919647,-529.703186,0.198100,95,97,91
363.575165,-835.868469,0.198200,95,97,91
445.865570,-593.669800,0.198300,95,97,91
369.425964,-523.191467,0.198400,95,97,91
676.746277,-222.801620,0.198500,95,97,91
448.929596,-604.760437,0.198600,95,97,91
475.389893,-662.031189,0.198700,95,97,91
462.572174,-629.334595,0.198800,95,97,91
454.355743,-592.864502,0.198900,95,97,91
455.636810,-616.863464,0.199000,95,97,91
419.377228,-734.856506,0.199100,95,97,91
1033.877441,-700.135071,0.199200,95,97,91
308.197754,-364.747650,0.199300,95,97,91
1029.560425,-701.377625,0.199400,95,97,91
1415.735107,-494.728668,0.199500,95,97,91
1074.633057,-617.484680,0.199600,95,97,91
911.312256,-267.601257,0.199700,95,97,91
639.974243,-435.294983,0.199800,95,97,91
596.982910,-295.258759,0.199900,95,97,91
1675.869873,-844.957275,0.200000,95,97,91
1689.098145,-847.097168,0.200100,95,97,91
451.691803,-578.483459,0.200200,95,97,91
470.511292,-663.549866,0.200300,95,97,91
470.644653,-662.629517,0.200400,95,97,91
447.852112,-710.673462,0.200500,95,97,91
446.974670,-710.420349,0.200600,95,97,91
448.708496,-710.926575,0.200700,95,97,91
450.014130,-714.585083,0.200800,95,97,91
605.606445,-566.725586,0.200900,95,97,91
465.520355,-582.717224,0.201000,95,97,91
508.104584,-714.815186,0.201100,95,97,91
710.236633,-767.299988,0.201200,95,97,91
710.405090,-767.346008,0.201300,95,97,91
439.130280,-584.811157,0.201400,95,97,91
1497.320068,-536.928223,0.201500,95,97,91
354.182983,-521.304749,0.201600,95,97,91
522.463135,-566.886658,0.201700,95,97,91
441.818787,-538.124695,0.201800,95,97,91
430.004852,-525.193359,0.201900,95,97,91
463.874268,-590.586487,0.202000,95,97,91
443.033173,-697.235840,0.202100,95,97,91
459.132568,-698.156250,0.202200,95,97,91
471.409821,-702.942261,0.202300,95,97,91
502.920624,-711.386719,0.202400,95,97,91
445.065338,-528.299622,0.202500,95,97,91
496.230988,-551.332214,0.202600,95,97,91
509.175110,-534.351135,0.202700,95,97,91
509.111877,-542.588562,0.202800,95,97,91
473.087494,-507.314880,0.202900,95,97,91
449.217438,-552.712769,0.203000,95,97,91
442.871735,-570.384155,0.203100,95,97,91
459.209778,-671.028015,0.203200,95,97,91
451.832214,-694.336670,0.203300,95,97,91
447.497620,-699.674866,0.203400,95,97,91
440.000732,-712.169067,0.203500,95,97,91
475.140686,-733.268860,0.203600,95,97,91
1532.888306,-871.096191,0.203700,95,97,91
449.192841,-595.625610,0.203800,95,97,91
447.799469,-714.608093,0.203900,95,97,91
446.237610,-714.055908,0.204000,95,97,91
1524.777100,-844.290039,0.204100,95,97,91
448.908539,-420.062653,0.204200,95,97,91
457.549652,-424.043274,0.204300,95,97,91
1698.693970,-805.495911,0.204400,95,97,91
1703.579590,-800.916992,0.204500,95,97,91
1710.002563,-788.606873,0.204600,95,97,91
1701.315796,-802.573669,0.204700,95,97,91
1706.187378,-797.143433,0.204800,95,97,91
1707.889648,-794.520264,0.204900,95,97,91
1699.473145,-804.713562,0.205000,95,97,91
1711.209839,-786.513000,0.205100,95,97,91
1702.740723,-801.078003,0.205200,95,97,91
1705.583740,-795.808838,0.205300,95,97,91
1709.851562,-790.792786,0.205400,95,97,91
1706.576904,-796.798279,0.205500,95,97,91
1700.434814,-803.655090,0.205600,95,97,91
1705.036133,-798.616028,0.205700,95,97,91
1706.654175,-796.614136,0.205800,95,97,91
1499.460938,-552.919861,0.205900,95,97,91
1499.482056,-552.873840,0.206000,95,97,91
611.471252,-22.204231,0.206100,95,97,91
454.864655,-633.706421,0.206200,95,97,91
451.144287,-633.108215,0.206300,95,97,91
596.779358,-749.214478,0.206400,95,97,91
409.556824,-552.321655,0.206500,95,97,91
402.151184,-503.978546,0.206600,95,97,91
446.300781,-586.859009,0.206700,95,97,91
446.785156,-586.352783,0.206800,95,97,91
446.662292,-586.467773,0.206900,95,97,91
445.697113,-587.457214,0.207000,95,97,91
414.551270,6.741803,0.207100,95,97,91
447.171234,-587.158142,0.207200,95,97,91
447.153656,-589.113892,0.207300,95,97,91
446.472748,-587.871399,0.207400,95,97,91
446.276245,-588.078491,0.207500,95,97,91
445.897186,-588.492615,0.207600,95,97,91
446.090210,-588.285583,0.207700,95,97,91
442.668182,-591.967102,0.207800,95,97,91
461.361267,-668.105774,0.207900,95,97,91
447.904755,-586.651917,0.208000,95,97,91
407.240387,-502.505890,0.208100,95,97,91
447.006256,-588.745789,0.208200,95,97,91
446.062103,-588.331604,0.208300,95,97,91
442.808563,-705.450317,0.208400,95,97,91
453.948608,-596.384888,0.208500,95,97,91
472.694366,-585.386414,0.208600,95,97,91
462.417725,-580.370239,0.208700,95,97,91
1148.763306,-11.366726,0.208800,95,97,91
1149.524902,-14.588065,0.208900,95,97,91
441.545013,-594.590210,0.209000,95,97,91
453.211548,-607.567566,0.209100,95,97,91
446.778107,-589.482056,0.209200,95,97,91
445.061859,-589.182922,0.209300,95,97,91
446.065643,-588.699707,0.209400,95,97,91
634.670959,-62.908154,0.209500,95,97,91
442.215424,-581.014587,0.209600,95,97,91
606.631287,-19.374056,0.209700,95,97,91
444.717865,-590.678589,0.209800,95,97,91
417.611816,10.906534,0.209900,95,97,91
444.282684,-588.975830,0.210000,95,97,91
443.777252,-589.666138,0.210100,95,97,91
444.840729,-589.781189,0.210200,95,97,91
445.149597,-588.032471,0.210300,95,97,91
445.405792,-587.779297,0.210400,95,97,91
1666.161865,-847.097168,0.210500,95,97,91
447.093994,-591.898071,0.210600,95,97,91
445.504089,-589.505127,0.210700,95,97,91
646.923645,-309.846802,0.210800,95,97,91
621.042480,-292.497589,0.210900,95,97,91
674.966797,-300.873077,0.211000,95,97,91
643.529663,-281.982239,0.211100,95,97,91
633.712830,-303.795288,0.211200,95,97,91
666.143188,-307.821991,0.211300,95,97,91
548.790039,-379.335693,0.211400,95,97,91
638.672119,-733.637024,0.211500,95,97,91
601.664917,-742.495667,0.211600,95,97,91
617.553772,-740.862000,0.211700,95,97,91
617.834534,-740.470825,0.211800,95,97,91
614.717834,-743.278015,0.211900,95,97,91
605.904724,-746.453369,0.212000,95,97,91
598.994019,-743.462036,0.212100,95,97,91
606.364563,-738.630066,0.212200,95,97,91
626.763428,-298.319000,0.212300,95,97,91
621.888306,-295.074677,0.212400,95,97,91
436.287384,-724.157043,0.212500,95,97,91
441.559082,-723.144653,0.212600,95,97,91
1539.412842,-862.559631,0.212700,95,97,91
1677.810791,-815.597046,0.212800,95,97,91
434.521942,-589.090942,0.212900,95,97,91
457.967316,-672.017395,0.213000,95,97,91
457.128479,-604.139160,0.213100,95,97,91
446.451691,-590.609558,0.213200,95,97,91
443.633362,-589.827209,0.213300,95,97,91
447.936340,-588.216553,0.213400,95,97,91
1693.236206,-807.037476,0.213500,95,97,91
378.646179,-534.075073,0.213600,95,97,91
442.155731,-581.520752,0.213700,95,97,91
447.550293,-589.182922,0.213800,95,97,91
457.739197,-612.491638,0.213900,95,97,91
444.756500,-590.655579,0.214000,95,97,91
445.725159,-589.343994,0.214100,95,97,91
444.170349,-591.552917,0.214200,95,97,91
441.832825,-582.141968,0.214300,95,97,91
1604.035034,-594.060974,0.214400,95,97,91
1605.235352,-596.960205,0.214500,95,97,91
441.741577,-590.494507,0.214600,95,97,91
458.532410,-581.543762,0.214700,95,97,91
863.101868,-648.133484,0.214800,95,97,91
863.073730,-647.995361,0.214900,95,97,91
860.613403,-647.926392,0.215000,95,97,91
863.140442,-648.248535,0.215100,95,97,91
862.312134,-650.296326,0.215200,95,97,91
469.023132,-613.987244,0.215300,95,97,91
861.947144,-648.340576,0.215400,95,97,91
861.350464,-648.248535,0.215500,95,97,91
836.108093,-652.459290,0.215600,95,97,91
812.680237,-657.130188,0.215700,95,97,91
425.059570,-577.309998,0.215800,95,97,91
424.705109,-578.598511,0.215900,95,97,91
425.729950,-578.874695,0.216000,95,97,91
425.582520,-576.412659,0.216100,95,97,91
425.431580,-576.044434,0.216200,95,97,91
714.058777,-429.933716,0.216300,95,97,91
720.783569,-424.756592,0.216400,95,97,91
450.182617,-577.102905,0.216500,95,97,91
442.924377,-583.913696,0.216600,95,97,91
458.395508,-579.150757,0.216700,95,97,91
463.814636,-579.933105,0.216800,95,97,91
467.706970,-583.798706,0.216900,95,97,91
467.482330,-584.719116,0.217000,95,97,91
467.952667,-584.926208,0.217100,95,97,91
467.447235,-584.212891,0.217200,95,97,91
457.837463,-616.978455,0.217300,95,97,91
440.130585,-587.848389,0.217400,95,97,91
475.010834,-416.289062,0.217500,95,97,91
461.241974,-615.804993,0.217600,95,97,91
460.406616,-603.909058,0.217700,95,97,91
457.328552,-543.439880,0.217800,95,97,91
506.384827,-552.482727,0.217900,95,97,91
441.141418,-546.638245,0.218000,95,97,91
441.151947,-546.615234,0.218100,95,97,91
458.234039,-631.865723,0.218200,95,97,91
434.764130,-579.311829,0.218300,95,97,91
431.149048,-578.046326,0.218400,95,97,91
1161.128174,-579.703003,0.218500,95,97,91
440.734253,-581.083557,0.218600,95,97,91
438.902161,-580.554382,0.218700,95,97,91
823.862427,-454.346863,0.218800,95,97,91
443.682495,-591.115723,0.218900,95,97,91
443.928162,-589.090942,0.219000,95,97,91
1726.810913,-666.011841,0.219100,95,97,91
1727.474243,-665.781799,0.219200,95,97,91
1738.021118,-675.238708,0.219300,95,97,91
1736.824219,-675.123657,0.219400,95,97,91
1737.083984,-675.307739,0.219500,95,97,91
1749.168213,-685.339905,0.219600,95,97,91
1755.868408,-689.435669,0.219700,95,97,91
1755.703491,-689.297546,0.219800,95,97,91
1749.059326,-685.247864,0.219900,95,97,91
1755.601562,-689.205505,0.220000,95,97,91
442.352295,-589.413025,0.220100,95,97,91
442.176788,-584.373901,0.220200,95,97,91
956.314697,14.634084,0.220300,95,97,91
956.493713,14.265930,0.220400,95,97,91
956.479675,14.426998,0.220500,95,97,91
956.097107,14.265930,0.220600,95,97,91
956.083069,14.426998,0.220700,95,97,91
436.975281,-580.048157,0.220800,95,97,91
439.530396,-588.653687,0.220900,95,97,91
442.243469,-584.880188,0.221000,95,97,91
435.153717,-579.541992,0.221100,95,97,91
431.959808,-578.529480,0.221200,95,97,91
1609.415527,-567.530945,0.221300,95,97,91
1609.257690,-567.991150,0.221400,95,97,91
1611.995239,-567.047729,0.221500,95,97,91
1603.873535,-593.899902,0.221600,95,97,91
1604.364990,-594.360107,0.221700,95,97,91
1604.761597,-575.216187,0.221800,95,97,91
1604.687866,-575.469238,0.221900,95,97,91
1604.617676,-575.676270,0.222000,95,97,91
1604.210571,-594.222046,0.222100,95,97,91
467.524445,-563.504272,0.222200,95,97,91
1334.129150,-553.403015,0.222300,95,97,91
1327.291992,-557.015564,0.222400,95,97,91
1336.424438,-551.677307,0.222500,95,97,91
1675.013428,-815.827148,0.222600,95,97,91
1667.649902,-850.502625,0.222700,95,97,91
1673.363770,-859.062134,0.222800,95,97,91
1674.150024,-822.246826,0.222900,95,97,91
1675.083618,-815.389954,0.223000,95,97,91
1672.086304,-858.325867,0.223100,95,97,91
1675.024048,-815.597046,0.223200,95,97,91
1662.413330,-849.536194,0.223300,95,97,91
1666.782959,-848.316711,0.223400,95,97,91
1672.086304,-858.325867,0.223500,95,97,91
1007.533020,-332.304169,0.223600,95,97,91
1056.290894,-278.369720,0.223700,95,97,91
463.119690,-598.018616,0.223800,95,97,91
395.229889,-176.828506,0.223900,95,97,91
449.477142,-614.838562,0.224000,95,97,91
466.545227,-583.453613,0.224100,95,97,91
1677.730103,-861.294067,0.224200,95,97,91
1675.241577,-857.313416,0.224300,95,97,91
1677.505371,-860.764832,0.224400,95,97,91
1674.104492,-854.897400,0.224500,95,97,91
1059.909546,-631.382446,0.224600,95,97,91
437.775543,-581.037537,0.224700,95,97,91
1363.193604,-866.793335,0.224800,95,97,91
371.872284,-174.711639,0.224900,95,97,91
674.450867,-239.437546,0.225000,95,97,91
437.803589,-588.262573,0.225100,95,97,91
1693.130981,-777.700317,0.225200,95,97,91
1686.409668,-757.774048,0.225300,95,97,91
1689.280762,-770.498352,0.225400,95,97,91
1686.458862,-757.520935,0.225500,95,97,91
1689.280762,-770.498352,0.225600,95,97,91
464.709595,-580.531372,0.225700,95,97,91
448.245209,-625.284973,0.225800,95,97,91
440.607910,-587.227112,0.225900,95,97,91
439.990204,-589.528076,0.226000,95,97,91
440.902740,-590.011292,0.226100,95,97,91
441.667877,-585.639465,0.226200,95,97,91
443.394714,-589.942261,0.226300,95,97,91
440.211334,-587.802368,0.226400,95,97,91
442.847168,-584.028809,0.226500,95,97,91
441.099304,-586.421753,0.226600,95,97,91
441.545013,-590.471497,0.226700,95,97,91
431.342102,-579.012695,0.226800,95,97,91
440.127075,-590.103333,0.226900,95,97,91
443.145508,-579.818054,0.227000,95,97,91
292.463379,-516.219604,0.227100,95,97,91
299.335571,-520.315308,0.227200,95,97,91
316.845886,-526.228760,0.227300,95,97,91
355.867645,-537.066284,0.227400,95,97,91
370.545593,-542.151428,0.227500,95,97,91
384.128479,-555.819092,0.227600,95,97,91
404.555389,-581.819885,0.227700,95,97,91
406.580536,-587.825378,0.227800,95,97,91
407.296539,-589.988281,0.227900,95,97,91
407.092987,-589.413025,0.228000,95,97,91
370.907074,-542.404541,0.228100,95,97,91
283.706482,-514.770020,0.228200,95,97,91
276.932617,-515.230225,0.228300,95,97,91
276.957153,-515.299255,0.228400,95,97,91
257.593658,-568.405273,0.228500,95,97,91
281.151367,-576.136475,0.228600,95,97,91
294.572784,-607.452576,0.228700,95,97,91
331.379913,-644.244812,0.228800,95,97,91
360.160126,-647.903320,0.228900,95,97,91
439.919983,-586.605896,0.229000,95,97,91
440.811493,-584.719116,0.229100,95,97,91
682.951599,-115.945198,0.229200,95,97,91
808.135071,-66.014442,0.229300,95,97,91
429.327484,-577.471069,0.229400,95,97,91
426.846069,-577.171936,0.229500,95,97,91
426.765320,-577.148987,0.229600,95,97,91
1041.806030,-618.865234,0.229700,95,97,91
1041.806030,-618.865234,0.229800,95,97,91
989.408447,-622.753906,0.229900,95,97,91
1706.190796,-797.327454,0.230000,95,97,91
1709.054810,-792.633484,0.230100,95,97,91
1709.991943,-787.962585,0.230200,95,97,91
1717.783691,-776.687866,0.230300,95,97,91
1727.235596,-752.458801,0.230400,95,97,91
1706.998047,-796.038879,0.230500,95,97,91
1709.377808,-791.943237,0.230600,95,97,91
1710.630859,-786.835083,0.230700,95,97,91
1718.352295,-773.719666,0.230800,95,97,91
1707.050781,-795.877869,0.230900,95,97,91
1709.493652,-791.759155,0.231000,95,97,91
1711.262451,-785.661621,0.231100,95,97,91
1718.369873,-773.696655,0.231200,95,97,91
1731.019165,-747.534729,0.231300,95,97,91
1703.646240,-800.824890,0.231400,95,97,91
1707.229736,-795.624817,0.231500,95,97,91
1709.651489,-791.414001,0.231600,95,97,91
1712.013550,-784.350037,0.231700,95,97,91
1718.387329,-773.719666,0.231800,95,97,91
1704.155151,-799.927551,0.231900,95,97,91
1707.443848,-795.371704,0.232000,95,97,91
1709.942749,-790.493652,0.232100,95,97,91
1720.029907,-767.760193,0.232200,95,97,91
1704.506104,-799.421326,0.232300,95,97,91
1707.605347,-795.026489,0.232400,95,97,91
1709.886719,-790.700684,0.232500,95,97,91
1712.754150,-783.153564,0.232600,95,97,91
1721.212769,-764.331787,0.232700,95,97,91
1704.860718,-798.777100,0.232800,95,97,91
1709.981445,-790.217529,0.232900,95,97,91
1713.933472,-781.427856,0.233000,95,97,91
1721.510986,-763.480408,0.233100,95,97,91
1705.197632,-798.270874,0.233200,95,97,91
1707.696533,-794.957520,0.233300,95,97,91
1710.076172,-789.757324,0.233400,95,97,91
1714.126465,-781.220764,0.233500,95,97,91
1722.030518,-761.800720,0.233600,95,97,91
1705.997925,-797.603577,0.233700,95,97,91
1707.847534,-794.658386,0.233800,95,97,91
1709.953369,-788.974976,0.233900,95,97,91
1715.891846,-779.103943,0.234000,95,97,91
1724.568115,-756.807617,0.234100,95,97,91
1706.099609,-797.442505,0.234200,95,97,91
1708.345825,-793.899048,0.234300,95,97,91
1709.458496,-789.297119,0.234400,95,97,91
1716.902710,-777.907410,0.234500,95,97,91
1724.526001,-756.876709,0.234600,95,97,91
1765.523804,-733.982178,0.234700,95,97,91
1759.939697,-738.630066,0.234800,95,97,91
1753.895874,-739.205322,0.234900,95,97,91
1741.302734,-740.332764,0.235000,95,97,91
1749.838623,-739.596436,0.235100,95,97,91
1760.564453,-736.444153,0.235200,95,97,91
1758.419922,-738.975220,0.235300,95,97,91
1746.156860,-739.573486,0.235400,95,97,91
1768.156128,-732.739624,0.235500,95,97,91
1760.013428,-738.469055,0.235600,95,97,91
1757.254761,-738.998230,0.235700,95,97,91
1741.172852,-740.378784,0.235800,95,97,91
786.374390,-97.652596,0.235900,95,97,91
449.017365,-583.936768,0.236000,95,97,91
448.996307,-583.936768,0.236100,95,97,91
448.024078,-585.018250,0.236200,95,97,91
452.341125,-586.973999,0.236300,95,97,91
440.274506,-581.106628,0.236400,95,97,91
441.060669,-586.398804,0.236500,95,97,91
502.313477,-704.161743,0.236600,95,97,91
473.424438,-668.635010,0.236700,95,97,91
1102.620117,-879.931824,0.236800,95,97,91
350.037903,-169.396423,0.236900,95,97,91
429.562622,-578.460510,0.237000,95,97,91
1086.422363,-869.853638,0.237100,95,97,91
450.038696,-714.055908,0.237200,95,97,91
449.477142,-699.766968,0.237300,95,97,91
849.189026,-408.258728,0.237400,95,97,91
841.467529,-417.761658,0.237500,95,97,91
1659.282593,-683.200012,0.237600,95,97,91
452.776337,-623.421204,0.237700,95,97,91
445.047791,-696.338501,0.237800,95,97,91
888.554810,19.673178,0.237900,95,97,91
906.851318,15.600486,0.238000,95,97,91
906.738953,16.359802,0.238100,95,97,91
1500.331421,-521.143677,0.238200,95,97,91
454.882233,-16.681934,0.238300,95,97,91
1535.250366,-540.425720,0.238400,95,97,91
401.730011,-504.553772,0.238500,95,97,91
452.014740,-630.047913,0.238600,95,97,91
447.571350,-621.971558,0.238700,95,97,91
447.771362,-621.879517,0.238800,95,97,91
440.442963,-609.017212,0.238900,95,97,91
440.643036,-608.925171,0.239000,95,97,91
1501.338745,-546.592224,0.239100,95,97,91
1499.713623,-546.017029,0.239200,95,97,91
1500.724487,-522.409180,0.239300,95,97,91
464.741180,-636.674683,0.239400,95,97,91
383.300140,-176.805511,0.239500,95,97,91
341.544220,-188.632431,0.239600,95,97,91
1721.079346,-764.078674,0.239700,95,97,91
902.358826,-1.909794,0.239800,95,97,91
381.236389,-504.116577,0.239900,95,97,91
465.039551,-638.377441,0.240000,95,97,91
464.983368,-638.193298,0.240100,95,97,91
464.934265,-637.986206,0.240200,95,97,91
464.348114,-637.549072,0.240300,95,97,91
468.258026,-634.419739,0.240400,95,97,91
464.256836,-635.271118,0.240500,95,97,91
464.183136,-635.271118,0.240600,95,97,91
1256.138062,-562.537903,0.240700,95,97,91
427.562042,-430.416931,0.240800,95,97,91
427.383057,-430.485962,0.240900,95,97,91
443.131470,-590.494507,0.241000,95,97,91
443.233246,-590.356445,0.241100,95,97,91
443.313965,-590.264404,0.241200,95,97,91
444.984619,-643.692627,0.241300,95,97,91
829.109558,-855.725769,0.241400,95,97,91
625.341980,-742.403625,0.241500,95,97,91
621.972534,-742.863831,0.241600,95,97,91
617.465942,-740.401855,0.241700,95,97,91
1273.578247,-616.564270,0.241800,95,97,91
1384.940186,-588.814758,0.241900,95,97,91
427.035583,-577.494080,0.242000,95,97,91
1729.260742,-748.086975,0.242100,95,97,91
988.934692,-229.750519,0.242200,95,97,91
1074.405029,-660.259460,0.242300,95,97,91
1084.825562,-849.582214,0.242400,95,97,91
1093.192871,-854.667358,0.242500,95,97,91
1103.585327,-856.231995,0.242600,95,97,91
1099.387573,-854.690308,0.242700,95,97,91
1097.151855,-853.838989,0.242800,95,97,91
432.156342,-587.963440,0.242900,95,97,91
559.154419,-746.729431,0.243000,95,97,91
849.382080,-819.554688,0.243100,95,97,91
1088.229980,-871.050171,0.243200,95,97,91
1092.613647,-867.322571,0.243300,95,97,91
1094.765137,-867.644714,0.243400,95,97,91
1096.783325,-868.772156,0.243500,95,97,91
1098.183716,-864.400330,0.243600,95,97,91
1104.308228,-861.662231,0.243700,95,97,91
433.862122,-376.367462,0.243800,95,97,91
518.844543,-696.867737,0.243900,95,97,91
511.645935,-717.300232,0.244000,95,97,91
433.012726,-588.584717,0.244100,95,97,91
1073.597656,-245.811188,0.244200,95,97,91
447.301086,-699.835938,0.244300,95,97,91
449.336761,-592.082153,0.244400,95,97,91
1671.798462,-855.242554,0.244500,95,97,91
468.373840,-634.810913,0.244600,95,97,91
447.430939,-592.703430,0.244700,95,97,91
439.572540,-588.147522,0.244800,95,97,91
350.803040,-487.894836,0.244900,95,97,91
452.190186,-638.124329,0.245000,95,97,91
1114.248047,-865.366760,0.245100,95,97,91
901.330444,-409.225128,0.245200,95,97,91
947.568359,-767.898254,0.245300,95,97,91
1362.912842,-866.287109,0.245400,95,97,91
1181.944824,-871.004089,0.245500,95,97,91
1205.456787,-861.225037,0.245600,95,97,91
1231.969727,-851.515015,0.245700,95,97,91
430.545349,-664.447205,0.245800,95,97,91
431.749207,-663.457764,0.245900,95,97,91
473.501617,-653.609741,0.246000,95,97,91
1674.328979,-872.292603,0.246100,95,97,91
469.581177,-584.143860,0.246200,95,97,91
451.053040,-740.010620,0.246300,95,97,91
458.981628,-580.370239,0.246400,95,97,91
414.259949,-656.600952,0.246500,95,97,91
1705.302856,-774.340881,0.246600,95,97,91
1329.401489,-610.420776,0.246700,95,97,91
1328.573120,-609.776489,0.246800,95,97,91
843.896301,-821.602600,0.246900,95,97,91
843.527771,-808.326050,0.247000,95,97,91
1698.272827,-790.792786,0.247100,95,97,91
490.288940,-686.375366,0.247200,95,97,91
1117.764771,-837.916321,0.247300,95,97,91
1143.165161,-809.706604,0.247400,95,97,91
1143.744263,-809.545532,0.247500,95,97,91
1126.405884,-770.682373,0.247600,95,97,91
1099.398071,-780.139343,0.247700,95,97,91
1097.657349,-779.909241,0.247800,95,97,91
1065.325073,-791.920166,0.247900,95,97,91
929.268311,-697.419983,0.248000,95,97,91
929.071777,-697.350891,0.248100,95,97,91
936.624817,-689.596680,0.248200,95,97,91
980.412964,-677.539673,0.248300,95,97,91
969.880005,-674.824524,0.248400,95,97,91
1034.989990,-668.611938,0.248500,95,97,91
1026.784180,-670.751831,0.248600,95,97,91
1076.226562,-663.963989,0.248700,95,97,91
1076.577515,-661.041809,0.248800,95,97,91
1187.584961,-628.115112,0.248900,95,97,91
1186.974365,-627.424866,0.249000,95,97,91
1138.704224,-867.805725,0.249100,95,97,91
1139.058716,-867.943848,0.249200,95,97,91
272.650665,-405.267456,0.249300,95,97,91
328.298279,-457.015991,0.249400,95,97,91
847.097229,-842.334167,0.249500,95,97,91
844.159546,-838.077393,0.249600,95,97,91
849.771667,-807.175598,0.249700,95,97,91
848.560791,-807.704773,0.249800,95,97,91
1190.248901,-797.764709,0.249900,95,97,91
1190.273438,-797.764709,0.250000,95,97,91
1188.999512,-796.959290,0.250100,95,97,91
1188.887085,-797.281433,0.250200,95,97,91
797.746094,-724.295105,0.250300,95,97,91
864.523315,-700.641235,0.250400,95,97,91
864.621582,-699.927979,0.250500,95,97,91
904.327759,-695.671204,0.250600,95,97,91
897.599487,-695.579163,0.250700,95,97,91
1066.925537,-715.436401,0.250800,95,97,91
1061.731079,-720.406494,0.250900,95,97,91
525.562256,-732.509521,0.251000,95,97,91
429.313416,-686.766479,0.251100,95,97,91
428.344727,-686.283325,0.251200,95,97,91
428.204315,-686.283325,0.251300,95,97,91
475.790009,-735.385742,0.251400,95,97,91
474.266754,-738.146851,0.251500,95,97,91
475.670685,-735.891907,0.251600,95,97,91
468.208862,-781.588928,0.251700,95,97,91
468.587921,-782.302246,0.251800,95,97,91
441.548523,-848.983948,0.251900,95,97,91
441.123840,-851.077820,0.252000,95,97,91
999.660522,-230.371780,0.252100,95,97,91
1148.114014,27.059250,0.252200,95,97,91
1148.114014,26.944201,0.252300,95,97,91
1149.788086,-13.391567,0.252400,95,97,91
1148.959839,-11.619830,0.252500,95,97,91
1124.854614,-30.326607,0.252600,95,97,91
1125.258179,-28.807978,0.252700,95,97,91
1130.789673,16.014658,0.252800,95,97,91
1130.814209,16.267763,0.252900,95,97,91
1115.820435,10.377315,0.253000,95,97,91
1117.206787,7.892281,0.253100,95,97,91
474.951172,-591.667969,0.253200,95,97,91
468.240448,-632.694031,0.253300,95,97,91
468.370300,-632.187805,0.253400,95,97,91
468.468597,-631.543579,0.253500,95,97,91
349.500916,-861.017944,0.253600,95,97,91
1005.525391,-332.764343,0.253700,95,97,91
986.909546,-332.281158,0.253800,95,97,91
909.564392,3.750559,0.253900,95,97,91
880.352417,-13.437587,0.254000,95,97,91
821.742493,-450.504272,0.254100,95,97,91
800.231018,-423.514069,0.254200,95,97,91
332.408264,-69.926071,0.254300,95,97,91
294.151611,-383.155273,0.254400,95,97,91
1098.331177,-177.840927,0.254500,95,97,91
1016.707520,-167.900803,0.254600,95,97,91
468.981018,-569.624756,0.254700,95,97,91
528.633301,-731.221008,0.254800,95,97,91
518.932312,-720.337463,0.254900,95,97,91
850.505249,-832.877258,0.255000,95,97,91
928.875244,-330.762482,0.255100,95,97,91
1566.452271,-535.455627,0.255200,95,97,91
930.731934,-222.571518,0.255300,95,97,91
401.400116,-867.483643,0.255400,95,97,91
642.708374,-431.636475,0.255500,95,97,91
628.241028,-440.057922,0.255600,95,97,91
628.774536,-439.804840,0.255700,95,97,91
629.511597,-442.312897,0.255800,95,97,91
597.797180,-460.053253,0.255900,95,97,91
558.648987,-499.537659,0.256000,95,97,91
575.896118,-511.157501,0.256100,95,97,91
563.941772,-474.319183,0.256200,95,97,91
995.705017,-664.884399,0.256300,95,97,91
1453.826782,-658.464783,0.256400,95,97,91
1366.057495,-688.515259,0.256500,95,97,91
1354.742065,-741.483215,0.256600,95,97,91
1323.813843,-689.090454,0.256700,95,97,91
1328.302856,-692.104736,0.256800,95,97,91
1326.161865,-688.722351,0.256900,95,97,91
1279.885376,-839.020813,0.257000,95,97,91
1309.602661,-815.528015,0.257100,95,97,91
1282.952881,-837.778320,0.257200,95,97,91
1332.935669,-794.290222,0.257300,95,97,91
1340.587158,-818.197144,0.257400,95,97,91
1212.402588,-834.142761,0.257500,95,97,91
1310.174805,-769.785034,0.257600,95,97,91
1312.010376,-769.785034,0.257700,95,97,91
870.142456,-201.563797,0.257800,95,97,91
443.061249,-695.924316,0.257900,95,97,91
488.846405,-113.207062,0.258000,95,97,91
527.383850,-95.282616,0.258100,95,97,91
554.602234,-62.493980,0.258200,95,97,91
590.788147,-42.912838,0.258300,95,97,91
578.654785,-8.145387,0.258400,95,97,91
499.316071,23.814899,0.258500,95,97,91
460.350464,-11.366726,0.258600,95,97,91
1072.716797,-619.509583,0.258700,95,97,91
454.640045,-594.291016,0.258800,95,97,91
453.067657,-593.830933,0.258900,95,97,91
1163.090210,-628.092102,0.259000,95,97,91
1043.350464,-625.169861,0.259100,95,97,91
492.822998,-566.334412,0.259200,95,97,91
992.286499,-353.979156,0.259300,95,97,91
992.198730,-353.403931,0.259400,95,97,91
992.546204,-355.313721,0.259500,95,97,91
985.807434,-353.035797,0.259600,95,97,91
988.510010,-353.012756,0.259700,95,97,91
986.660278,-353.495941,0.259800,95,97,91
992.865601,-353.887115,0.259900,95,97,91
991.710876,-354.140228,0.260000,95,97,91
992.949829,-355.497803,0.260100,95,97,91
994.381836,-353.518982,0.260200,95,97,91
994.982056,-353.426910,0.260300,95,97,91
987.253418,-352.069366,0.260400,95,97,91
980.332153,-358.281952,0.260500,95,97,91
993.781677,-353.634003,0.260600,95,97,91
993.332397,-353.657013,0.260700,95,97,91
993.792236,-351.770233,0.260800,95,97,91
994.273010,-351.655212,0.260900,95,97,91
994.230896,-351.471130,0.261000,95,97,91
993.925537,-351.448120,0.261100,95,97,91
993.922119,-351.655212,0.261200,95,97,91
994.030823,-351.977325,0.261300,95,97,91
334.001709,-506.003357,0.261400,95,97,91
339.171600,-506.578583,0.261500,95,97,91
421.956909,-556.210205,0.261600,95,97,91
423.006348,-557.429749,0.261700,95,97,91
438.747742,-586.905029,0.261800,95,97,91
438.666992,-587.135071,0.261900,95,97,91
439.193481,-592.657410,0.262000,95,97,91
415.607727,-657.061157,0.262100,95,97,91
414.758362,-654.553162,0.262200,95,97,91
413.312317,-656.439880,0.262300,95,97,91
493.026581,-730.944824,0.262400,95,97,91
443.313965,-570.936401,0.262500,95,97,91
412.108459,-536.283936,0.262600,95,97,91
405.404785,-528.759827,0.262700,95,97,91
468.286072,-504.852875,0.262800,95,97,91
506.511169,-546.155029,0.262900,95,97,91
484.223999,-559.638672,0.263000,95,97,91
450.119446,-625.446045,0.263100,95,97,91
1355.293091,-866.747314,0.263200,95,97,91
1319.946045,-563.734314,0.263300,95,97,91
1331.731934,-877.124634,0.263400,95,97,91
450.407227,-619.601624,0.263500,95,97,91
473.596405,-734.672424,0.263600,95,97,91
459.550232,-669.187195,0.263700,95,97,91
466.099487,-620.199829,0.263800,95,97,91
994.108093,-314.655823,0.263900,95,97,91
983.757690,-330.808533,0.264000,95,97,91
989.527832,-321.581665,0.264100,95,97,91
991.072083,-306.372375,0.264200,95,97,91
991.324768,-307.039642,0.264300,95,97,91
1047.502441,-256.372589,0.264400,95,97,91
1047.393555,-256.763763,0.264500,95,97,91
1047.590210,-256.096466,0.264600,95,97,91
1781.524902,-699.628845,0.264700,95,97,91
1781.574097,-700.158081,0.264800,95,97,91
1005.146362,-337.964508,0.264900,95,97,91
236.612183,27.358374,0.265000,95,97,91
238.904068,29.038073,0.265100,95,97,91
538.088745,-738.837158,0.265200,95,97,91
550.544922,-743.876221,0.265300,95,97,91
614.963562,-778.390625,0.265400,95,97,91
615.023193,-778.413635,0.265500,95,97,91
652.707764,-789.849365,0.265600,95,97,91
810.083008,-827.654114,0.265700,95,97,91
871.188354,-877.101685,0.265800,95,97,91
456.647644,-635.570251,0.265900,95,97,91
463.242523,-644.175842,0.266000,95,97,91
488.741119,-686.743530,0.266100,95,97,91
485.115509,-681.198242,0.266200,95,97,91
495.062256,-695.303040,0.266300,95,97,91
495.086792,-695.326050,0.266400,95,97,91
516.745667,-728.229736,0.266500,95,97,91
514.074707,-725.445618,0.266600,95,97,91
416.643097,21.444916,0.266700,95,97,91
416.653625,21.513945,0.266800,95,97,91
411.954041,-2.899205,0.266900,95,97,91
410.195618,-11.895946,0.267000,95,97,91
407.693146,-24.689264,0.267100,95,97,91
401.245667,-71.490723,0.267200,95,97,91
400.392822,-87.160233,0.267300,95,97,91
399.918976,-95.811829,0.267400,95,97,91
389.975769,-221.213959,0.267500,95,97,91
390.189850,-219.419220,0.267600,95,97,91
374.690643,-293.740112,0.267700,95,97,91
374.374756,-302.437714,0.267800,95,97,91
372.840973,-359.478455,0.267900,95,97,91
372.609314,-368.222076,0.268000,95,97,91
376.936920,-443.624420,0.268100,95,97,91
378.814636,-452.805237,0.268200,95,97,91
420.166931,-574.755981,0.268300,95,97,91
424.834961,-579.887085,0.268400,95,97,91
432.300262,-592.634399,0.268500,95,97,91
1674.027222,-839.342957,0.268600,95,97,91
1674.237793,-839.296936,0.268700,95,97,91
1601.655518,-592.174194,0.268800,95,97,91
977.548950,-231.085068,0.268900,95,97,91
958.403015,-217.969620,0.269000,95,97,91
417.938202,-526.850037,0.269100,95,97,91
1079.230957,-728.943054,0.269200,95,97,91
560.554871,-749.766663,0.269300,95,97,91
372.493530,-405.060394,0.269400,95,97,91
442.482147,-652.988464,0.269500,95,97,91
444.689789,-594.820251,0.269600,95,97,91
450.463409,-606.094971,0.269700,95,97,91
380.948578,-76.598846,0.269800,95,97,91
368.215088,-50.367939,0.269900,95,97,91
312.353363,-63.414360,0.270000,95,97,91
336.054932,-49.631630,0.270100,95,97,91
1120.821899,-0.690287,0.270200,95,97,91
1120.990356,-0.621258,0.270300,95,97,91
1030.472900,-31.822229,0.270400,95,97,91
1030.325562,-31.776211,0.270500,95,97,91
