X,Y,Z,R,G,B
1683.261475,-588.239502,0.260300,0,0,0
1683.194702,-588.561646,0.260400,0,0,0
1683.061401,-588.768738,0.260500,0,0,0
1683.036865,-588.952820,0.260600,0,0,0
1682.864746,-589.182922,0.260700,0,0,0
1682.857788,-589.390015,0.260800,0,0,0
1682.875366,-589.620117,0.260900,0,0,0
1682.822632,-590.011292,0.261000,0,0,0
1682.724487,-590.333374,0.261100,0,0,0
1682.612061,-590.632507,0.261200,0,0,0
1682.622681,-591.000671,0.261300,0,0,0
1682.629761,-591.345825,0.261400,0,0,0
1682.685791,-591.645020,0.261500,0,0,0
1682.720947,-591.875061,0.261600,0,0,0
1682.741943,-592.174194,0.261700,0,0,0
1682.752563,-592.289246,0.261800,0,0,0
1682.741943,-592.358215,0.261900,0,0,0
1682.731445,-592.657410,0.262000,0,0,0
1682.798218,-593.048584,0.262100,0,0,0
1682.598145,-593.232605,0.262200,0,0,0
1682.506836,-593.393677,0.262300,0,0,0
1682.464722,-593.761841,0.262400,0,0,0
1682.482178,-594.037903,0.262500,0,0,0
1682.464722,-594.291016,0.262600,0,0,0
1682.538452,-594.521179,0.262700,0,0,0
1682.545410,-594.682251,0.262800,0,0,0
1682.541992,-594.981384,0.262900,0,0,0
1682.464722,-595.234436,0.263000,0,0,0
1682.236572,-595.464539,0.263100,0,0,0
1682.159424,-595.648621,0.263200,0,0,0
1682.082153,-595.878723,0.263300,0,0,0
1682.011963,-596.200867,0.263400,0,0,0
1681.994385,-596.384888,0.263500,0,0,0
1681.843506,-596.730103,0.263600,0,0,0
1681.808350,-596.983215,0.263700,0,0,0
1681.783813,-597.190247,0.263800,0,0,0
1681.657471,-597.420349,0.263900,0,0,0
1681.310059,-598.294739,0.264000,0,0,0
1681.243286,-598.455811,0.264100,0,0,0
1681.211670,-598.846985,0.264200,0,0,0
1681.141602,-599.054077,0.264300,0,0,0
1680.997559,-599.353149,0.264400,0,0,0
1680.937988,-599.606262,0.264500,0,0,0
1680.955444,-599.951416,0.264600,0,0,0
1680.944946,-600.135498,0.264700,0,0,0
1680.941528,-600.434631,0.264800,0,0,0
1680.759033,-600.710693,0.264900,0,0,0
1680.744873,-600.779785,0.265000,0,0,0
1680.843262,-601.055847,0.265100,0,0,0
1680.759033,-601.262939,0.265200,0,0,0
1680.709839,-601.447083,0.265300,0,0,0
1680.685303,-601.539062,0.265400,0,0,0
1680.713257,-601.723145,0.265500,0,0,0
1680.769531,-602.022278,0.265600,0,0,0
1680.769531,-602.252380,0.265700,0,0,0
1680.744873,-602.597534,0.265800,0,0,0
1680.636230,-602.850586,0.265900,0,0,0
1680.586914,-603.080750,0.266000,0,0,0
1680.495728,-603.264771,0.266100,0,0,0
1680.460571,-603.356812,0.266200,0,0,0
1680.401001,-603.563904,0.266300,0,0,0
1680.488647,-603.770996,0.266400,0,0,0
1680.478149,-603.909058,0.266500,0,0,0
1680.492188,-604.001160,0.266600,0,0,0
1680.552002,-604.139160,0.266700,0,0,0
1680.569458,-604.369263,0.266800,0,0,0
1680.629028,-604.530334,0.266900,0,0,0
1680.667725,-604.668335,0.267000,0,0,0
1680.674805,-604.875427,0.267100,0,0,0
1680.685303,-604.921448,0.267200,0,0,0
1680.667725,-605.105591,0.267300,0,0,0
1680.622070,-605.174561,0.267400,0,0,0
1680.594116,-605.289612,0.267500,0,0,0
1680.636230,-605.358704,0.267600,0,0,0
1680.650146,-605.450684,0.267700,0,0,0
1680.681763,-605.519775,0.267800,0,0,0
1680.734375,-605.634766,0.267900,0,0,0
1680.794067,-605.726868,0.268000,0,0,0
1680.808105,-605.864868,0.268100,0,0,0
1680.871216,-606.048950,0.268200,0,0,0
1680.850220,-606.094971,0.268300,0,0,0
1680.839600,-606.187012,0.268400,0,0,0
1680.829102,-606.233032,0.268500,0,0,0
1680.759033,-606.233032,0.268600,0,0,0
1680.744873,-606.509155,0.268700,0,0,0
1680.716797,-606.670227,0.268800,0,0,0
1680.737915,-606.854248,0.268900,0,0,0
1680.664185,-607.199463,0.269000,0,0,0
1680.643188,-607.337463,0.269100,0,0,0
1680.643188,-607.452576,0.269200,0,0,0
1680.660645,-607.590576,0.269300,0,0,0
1680.636230,-607.659668,0.269400,0,0,0
1680.611572,-607.797668,0.269500,0,0,0
1680.583496,-607.935730,0.269600,0,0,0
1680.502686,-608.027771,0.269700,0,0,0
1680.344849,-607.981750,0.269800,0,0,0
1680.274658,-607.981750,0.269900,0,0,0
1680.207886,-608.004761,0.270000,0,0,0
1680.151733,-608.096802,0.270100,0,0,0
1680.144775,-608.119812,0.270200,0,0,0
1679.818359,-608.879150,0.270300,0,0,0
1679.821777,-609.201233,0.270400,0,0,0
1679.741089,-609.316284,0.270500,0,0,0
1679.698975,-609.362305,0.270600,0,0,0
1679.702515,-609.408325,0.270700,0,0,0
1679.667480,-609.477417,0.270800,0,0,0
1679.488403,-609.546448,0.270900,0,0,0
1679.397095,-609.523376,0.271000,0,0,0
1679.305908,-609.523376,0.271100,0,0,0
1679.232178,-609.454346,0.271200,0,0,0
1679.214722,-609.385376,0.271300,0,0,0
1679.211182,-609.316284,0.271400,0,0,0
1679.193604,-609.293274,0.271500,0,0,0
1679.193604,-609.293274,0.271600,0,0,0
1679.242798,-609.385376,0.271700,0,0,0
1679.267334,-609.408325,0.271800,0,0,0
1679.281250,-609.454346,0.271900,0,0,0
1679.319946,-609.523376,0.272000,0,0,0
1679.354980,-609.546448,0.272100,0,0,0
1679.393677,-609.592468,0.272200,0,0,0
1679.414795,-609.730469,0.272300,0,0,0
1679.323486,-609.822510,0.272400,0,0,0
1679.249756,-609.868530,0.272500,0,0,0
1679.140991,-609.960571,0.272600,0,0,0
1679.091797,-609.983582,0.272700,0,0,0
1679.042725,-609.983582,0.272800,0,0,0
1679.039185,-610.006592,0.272900,0,0,0
1679.049683,-610.006592,0.273000,0,0,0
1679.060181,-610.006592,0.273100,0,0,0
1679.060181,-610.006592,0.273200,0,0,0
1679.056763,-610.029602,0.273300,0,0,0
1679.060181,-610.006592,0.273400,0,0,0
1679.046265,-610.052673,0.273500,0,0,0
1756.570312,-627.378845,0.273600,0,0,0
1756.598389,-627.815979,0.273700,0,0,0
1756.559814,-627.862000,0.273800,0,0,0
1756.640503,-627.862000,0.273900,0,0,0
1756.359741,-628.414307,0.274000,0,0,0
1756.545776,-628.667358,0.274100,0,0,0
1756.735229,-628.667358,0.274200,0,0,0
1756.514160,-629.311646,0.274300,0,0,0
1756.503662,-629.610779,0.274400,0,0,0
1756.475586,-629.656738,0.274500,0,0,0
1756.507202,-629.725830,0.274600,0,0,0
1756.928345,-629.932922,0.274700,0,0,0
1756.826538,-630.093933,0.274800,0,0,0
1756.819458,-630.140015,0.274900,0,0,0
1756.977417,-629.932922,0.275000,0,0,0
1757.121338,-630.001892,0.275100,0,0,0
1757.184570,-630.093933,0.275200,0,0,0
1757.110840,-630.070923,0.275300,0,0,0
1757.152954,-630.462097,0.275400,0,0,0
1757.279297,-630.830261,0.275500,0,0,0
1757.746094,-630.968323,0.275600,0,0,0
1758.353394,-631.083374,0.275700,0,0,0
1758.497192,-631.244446,0.275800,0,0,0
1759.114990,-632.509949,0.275900,0,0,0
1759.100830,-632.855103,0.276000,0,0,0
1758.886719,-633.591431,0.276100,0,0,0
1758.349854,-634.534790,0.276200,0,0,0
1757.914551,-635.777344,0.276300,0,0,0
1757.707520,-635.823364,0.276400,0,0,0
1757.774170,-636.007385,0.276500,0,0,0
1757.654785,-636.260498,0.276600,0,0,0
1757.391602,-636.789734,0.276700,0,0,0
1757.145874,-637.411011,0.276800,0,0,0
1756.787964,-638.147278,0.276900,0,0,0
1756.830078,-638.170349,0.277000,0,0,0
1756.696655,-638.124329,0.277100,0,0,0
1755.977173,-639.251709,0.277200,0,0,0
1755.763062,-639.251709,0.277300,0,0,0
1755.710449,-639.435852,0.277400,0,0,0
1755.622681,-639.734985,0.277500,0,0,0
1755.436768,-640.011047,0.277600,0,0,0
1755.092651,-640.471252,0.277700,0,0,0
1755.173462,-640.632324,0.277800,0,0,0
1754.864624,-640.103149,0.277900,0,0,0
1754.661011,-639.781006,0.278000,0,0,0
1754.397827,-639.734985,0.278100,0,0,0
1753.646729,-640.908447,0.278200,0,0,0
1754.274902,-642.887268,0.278300,0,0,0
1754.067871,-643.025330,0.278400,0,0,0
1753.706299,-643.002319,0.278500,0,0,0
1754.025757,-643.232422,0.278600,0,0,0
1752.505981,-646.683838,0.278700,0,0,0
1751.365356,-648.593628,0.278800,0,0,0
1751.200317,-650.618469,0.278900,0,0,0
1751.003784,-651.561829,0.279000,0,0,0
1750.975708,-652.574280,0.279100,0,0,0
1750.986206,-653.172546,0.279200,0,0,0
1751.052979,-653.402649,0.279300,0,0,0
1751.140747,-653.678772,0.279400,0,0,0
1751.298584,-654.276978,0.279500,0,0,0
1751.495117,-654.967285,0.279600,0,0,0
1751.575928,-655.588562,0.279700,0,0,0
1751.747925,-656.347839,0.279800,0,0,0
1751.779541,-656.531982,0.279900,0,0,0
1751.898804,-657.268250,0.280000,0,0,0
1751.930298,-657.475342,0.280100,0,0,0
1752.049683,-658.004578,0.280200,0,0,0
1752.190186,-658.602783,0.280300,0,0,0
1752.432251,-659.408142,0.280400,0,0,0
1752.600708,-660.098389,0.280500,0,0,0
1752.755249,-660.765686,0.280600,0,0,0
1752.751709,-660.903748,0.280700,0,0,0
1753.032471,-661.548035,0.280800,0,0,0
1753.141235,-661.893127,0.280900,0,0,0
1753.271118,-662.422424,0.281000,0,0,0
1753.281616,-662.675476,0.281100,0,0,0
1753.386963,-663.043701,0.281200,0,0,0
1753.401001,-663.319763,0.281300,0,0,0
1753.351807,-663.687927,0.281400,0,0,0
1753.365845,-663.825989,0.281500,0,0,0
1753.471191,-664.263184,0.281600,0,0,0
1753.422119,-664.953430,0.281700,0,0,0
1753.267578,-665.436646,0.281800,0,0,0
1753.246582,-666.057861,0.281900,0,0,0
1753.267578,-666.356995,0.282000,0,0,0
1753.415039,-666.978271,0.282100,0,0,0
1753.506348,-667.852661,0.282200,0,0,0
1753.558960,-668.197754,0.282300,0,0,0
1753.555420,-668.703979,0.282400,0,0,0
1753.506348,-668.934082,0.282500,0,0,0
1753.516846,-669.210205,0.282600,0,0,0
1753.657227,-669.670410,0.282700,0,0,0
1753.453613,-670.291626,0.282800,0,0,0
1753.446533,-671.050964,0.282900,0,0,0
1753.267578,-671.281067,0.283000,0,0,0
1753.362305,-671.948303,0.283100,0,0,0
1753.386963,-672.316467,0.283200,0,0,0
1753.380005,-672.523560,0.283300,0,0,0
1753.337891,-673.098816,0.283400,0,0,0
1753.372925,-673.443970,0.283500,0,0,0
1753.313232,-673.904175,0.283600,0,0,0
1753.376465,-674.088196,0.283700,0,0,0
1753.401001,-674.295288,0.283800,0,0,0
1753.453613,-675.146729,0.283900,0,0,0
1753.443115,-675.307739,0.284000,0,0,0
1753.506348,-675.767883,0.284100,0,0,0
1753.562378,-676.113098,0.284200,0,0,0
1753.597534,-676.619324,0.284300,0,0,0
1753.604492,-676.757324,0.284400,0,0,0
1753.618530,-677.286621,0.284500,0,0,0
1753.681763,-677.608704,0.284600,0,0,0
1753.776489,-677.930847,0.284700,0,0,0
1753.786987,-678.276001,0.284800,0,0,0
1753.786987,-678.644165,0.284900,0,0,0
1753.818604,-678.920227,0.285000,0,0,0
1753.843262,-679.127319,0.285100,0,0,0
1753.916992,-679.403442,0.285200,0,0,0
1753.927490,-680.001709,0.285300,0,0,0
1753.927490,-680.346802,0.285400,0,0,0
1753.927490,-680.576965,0.285500,0,0,0
1753.944946,-680.922058,0.285600,0,0,0
1753.948486,-681.290222,0.285700,0,0,0
1753.916992,-681.520325,0.285800,0,0,0
1753.913330,-681.658386,0.285900,0,0,0
1753.902832,-681.957520,0.286000,0,0,0
1753.902832,-682.164612,0.286100,0,0,0
1753.906372,-682.325623,0.286200,0,0,0
1753.906372,-682.325623,0.286300,0,0,0
1753.920532,-682.578735,0.286400,0,0,0
1753.969604,-682.785828,0.286500,0,0,0
1754.057373,-683.153992,0.286600,0,0,0
1754.352173,-683.015930,0.286700,0,0,0
1754.373169,-683.246033,0.286800,0,0,0
1754.545166,-683.269043,0.286900,0,0,0
1754.555786,-683.384155,0.287000,0,0,0
1754.559204,-683.430115,0.287100,0,0,0
1754.510132,-683.798218,0.287200,0,0,0
1754.566284,-683.936340,0.287300,0,0,0
1754.552246,-684.097412,0.287400,0,0,0
1754.594360,-684.350525,0.287500,0,0,0
1754.678589,-684.511536,0.287600,0,0,0
1754.692627,-684.626587,0.287700,0,0,0
1754.734741,-684.695679,0.287800,0,0,0
1754.717163,-684.764648,0.287900,0,0,0
1754.741699,-684.787659,0.288000,0,0,0
1754.833008,-684.695679,0.288100,0,0,0
1754.857544,-684.695679,0.288200,0,0,0
1754.920654,-684.672607,0.288300,0,0,0
1754.959351,-684.764648,0.288400,0,0,0
1754.941772,-684.810730,0.288500,0,0,0
1754.948853,-684.856750,0.288600,0,0,0
1754.976929,-684.925720,0.288700,0,0,0
1755.054077,-684.925720,0.288800,0,0,0
1755.050537,-684.925720,0.288900,0,0,0
1755.068115,-684.948792,0.289000,0,0,0
1755.180420,-685.270935,0.289100,0,0,0
1168.611084,-115.162872,0.289200,0,0,0
1168.214478,-115.323944,0.289300,0,0,0
1167.930176,-115.415985,0.289400,0,0,0
1167.933594,-115.415985,0.289500,0,0,0
1167.965210,-115.392967,0.289600,0,0,0
1168.109253,-115.369965,0.289700,0,0,0
1168.158325,-115.346947,0.289800,0,0,0
1168.189941,-115.254913,0.289900,0,0,0
1168.172363,-115.208893,0.290000,0,0,0
1168.112793,-115.208893,0.290100,0,0,0
1168.060059,-115.185890,0.290200,0,0,0
1168.067139,-115.185890,0.290300,0,0,0
1168.165405,-115.231911,0.290400,0,0,0
1168.203979,-115.323944,0.290500,0,0,0
1167.593262,-115.093849,0.290600,0,0,0
1167.547607,-115.070839,0.290700,0,0,0
1167.337036,-114.932785,0.290800,0,0,0
1167.266846,-114.886765,0.290900,0,0,0
1167.179199,-114.932785,0.291000,0,0,0
1167.161499,-114.978798,0.291100,0,0,0
1167.063354,-115.047829,0.291200,0,0,0
1166.880859,-115.139870,0.291300,0,0,0
1166.807129,-115.162872,0.291400,0,0,0
1166.771973,-115.139870,0.291500,0,0,0
1166.719360,-115.116859,0.291600,0,0,0
1166.617554,-115.093849,0.291700,0,0,0
1166.578857,-115.070839,0.291800,0,0,0
1166.554443,-115.047829,0.291900,0,0,0
1166.463135,-115.047829,0.292000,0,0,0
1166.445557,-115.001808,0.292100,0,0,0
1166.112061,-114.955788,0.292200,0,0,0
1166.077026,-114.978798,0.292300,0,0,0
1165.912109,-114.794724,0.292400,0,0,0
1165.792725,-114.702690,0.292500,0,0,0
1165.606689,-114.679672,0.292600,0,0,0
1165.557617,-114.656662,0.292700,0,0,0
1165.505005,-114.679672,0.292800,0,0,0
1165.427734,-114.679672,0.292900,0,0,0
1165.213623,-114.633659,0.293000,0,0,0
1165.143433,-114.656662,0.293100,0,0,0
1165.038208,-114.518608,0.293200,0,0,0
1164.673096,-114.472588,0.293300,0,0,0
1164.357300,-114.449585,0.293400,0,0,0
1164.146729,-114.357544,0.293500,0,0,0
1164.083496,-114.334534,0.293600,0,0,0
1164.097534,-114.357544,0.293700,0,0,0
1164.072998,-114.380554,0.293800,0,0,0
1163.932617,-114.840744,0.293900,0,0,0
1163.672852,-114.955788,0.294000,0,0,0
1163.293701,-114.955788,0.294100,0,0,0
1162.879639,-115.001808,0.294200,0,0,0
1162.518066,-115.070839,0.294300,0,0,0
1162.019653,-115.139870,0.294400,0,0,0
1161.710815,-115.093849,0.294500,0,0,0
1161.440674,-115.024818,0.294600,0,0,0
1161.222900,-114.748711,0.294700,0,0,0
1161.124756,-114.725693,0.294800,0,0,0
1160.584229,-114.081429,0.294900,0,0,0
1160.303467,-113.943367,0.295000,0,0,0
1160.103394,-113.759293,0.295100,0,0,0
1159.868164,-113.575218,0.295200,0,0,0
1159.527710,-113.483177,0.295300,0,0,0
1159.426025,-113.460167,0.295400,0,0,0
1158.938110,-113.598228,0.295500,0,0,0
1158.875000,-113.506187,0.295600,0,0,0
1158.808228,-113.414154,0.295700,0,0,0
1158.755615,-113.391136,0.295800,0,0,0
1158.531006,-113.322113,0.295900,0,0,0
1158.443359,-113.276093,0.296000,0,0,0
1158.299316,-113.253082,0.296100,0,0,0
1158.095703,-113.230072,0.296200,0,0,0
1157.987061,-113.207062,0.296300,0,0,0
1157.965942,-113.161041,0.296400,0,0,0
1157.948364,-113.138039,0.296500,0,0,0
1157.885132,-113.138039,0.296600,0,0,0
1157.829102,-113.115028,0.296700,0,0,0
1157.797363,-113.115028,0.296800,0,0,0
1157.737793,-112.999977,0.296900,0,0,0
1157.639404,-112.953957,0.297000,0,0,0
1157.414917,-112.838913,0.297100,0,0,0
1157.379761,-112.861916,0.297200,0,0,0
1157.281494,-112.769882,0.297300,0,0,0
1157.211304,-112.723862,0.297400,0,0,0
1157.074463,-112.608810,0.297500,0,0,0
1156.979736,-112.470757,0.297600,0,0,0
1156.867310,-112.401733,0.297700,0,0,0
1156.723511,-112.493767,0.297800,0,0,0
1156.649780,-112.562790,0.297900,0,0,0
1156.488281,-112.608810,0.298000,0,0,0
1156.411011,-112.585808,0.298100,0,0,0
1156.333984,-112.585808,0.298200,0,0,0
1156.253174,-112.539787,0.298300,0,0,0
1156.151367,-112.516777,0.298400,0,0,0
1156.077637,-112.447754,0.298500,0,0,0
1156.028442,-112.332703,0.298600,0,0,0
1155.933716,-112.309685,0.298700,0,0,0
1155.891602,-112.332703,0.298800,0,0,0
1155.846069,-112.355713,0.298900,0,0,0
1155.821411,-112.355713,0.299000,0,0,0
1155.814453,-112.355713,0.299100,0,0,0
1155.814453,-112.355713,0.299200,0,0,0
1155.817871,-112.355713,0.299300,0,0,0
1155.824951,-112.378716,0.299400,0,0,0
1155.824951,-112.378716,0.299500,0,0,0
1155.824951,-112.378716,0.299600,0,0,0
1155.824951,-112.378716,0.299700,0,0,0
1155.821411,-112.378716,0.299800,0,0,0
1155.821411,-112.378716,0.299900,0,0,0
1159.362793,-104.049255,0.300000,0,0,0
1159.383911,-104.187317,0.300100,0,0,0
1159.408447,-104.302361,0.300200,0,0,0
1159.527710,-105.084686,0.300300,0,0,0
1159.566406,-105.084686,0.300400,0,0,0
1160.135010,-103.635086,0.300500,0,0,0
1160.145508,-103.635086,0.300600,0,0,0
1160.377075,-103.819160,0.300700,0,0,0
1160.377075,-103.842171,0.300800,0,0,0
1160.380615,-103.911194,0.300900,0,0,0
1160.608765,-103.865181,0.301000,0,0,0
1160.619263,-103.888191,0.301100,0,0,0
1160.633301,-103.888191,0.301200,0,0,0
1160.756104,-103.911194,0.301300,0,0,0
1160.766724,-103.957214,0.301400,0,0,0
1160.542114,-103.819160,0.301500,0,0,0
1160.549072,-103.819160,0.301600,0,0,0
1160.549072,-103.796150,0.301700,0,0,0
1160.384277,-103.957214,0.301800,0,0,0
1160.373657,-103.980232,0.301900,0,0,0
1160.275391,-104.233337,0.302000,0,0,0
1160.278809,-104.256340,0.302100,0,0,0
1160.303467,-104.555466,0.302200,0,0,0
1160.299927,-104.601486,0.302300,0,0,0
1160.205078,-104.693520,0.302400,0,0,0
1160.212158,-104.693520,0.302500,0,0,0
1160.219238,-104.716537,0.302600,0,0,0
1159.994507,-104.601486,0.302700,0,0,0
1159.980591,-104.601486,0.302800,0,0,0
1159.977051,-104.601486,0.302900,0,0,0
1159.896362,-104.900612,0.303000,0,0,0
1159.892822,-104.923622,0.303100,0,0,0
1159.882324,-104.992645,0.303200,0,0,0
1159.850708,-105.222740,0.303300,0,0,0
1159.857666,-105.222740,0.303400,0,0,0
1159.871704,-105.199738,0.303500,0,0,0
1159.910278,-105.199738,0.303600,0,0,0
1160.117432,-105.544876,0.303700,0,0,0
1160.078735,-105.521866,0.303800,0,0,0
1160.092896,-105.521866,0.303900,0,0,0
1160.103394,-105.590897,0.304000,0,0,0
1160.257812,-105.153717,0.304100,0,0,0
1160.075317,-105.936043,0.304200,0,0,0
1160.057739,-106.074097,0.304300,0,0,0
1160.036621,-106.120117,0.304400,0,0,0
1159.892822,-106.327202,0.304500,0,0,0
1159.569824,-106.304192,0.304600,0,0,0
1159.482178,-106.396225,0.304700,0,0,0
1159.896362,-106.994476,0.304800,0,0,0
1159.906860,-107.017494,0.304900,0,0,0
1159.513794,-106.511276,0.305000,0,0,0
1159.513794,-106.626328,0.305100,0,0,0
1159.461182,-106.971474,0.305200,0,0,0
1159.440063,-107.339622,0.305300,0,0,0
1159.436523,-107.385643,0.305400,0,0,0
1159.436523,-107.431664,0.305500,0,0,0
1159.432983,-107.500694,0.305600,0,0,0
1159.432983,-107.523697,0.305700,0,0,0
1159.440063,-107.661758,0.305800,0,0,0
1159.590942,-108.697189,0.305900,0,0,0
1159.583984,-108.766220,0.306000,0,0,0
1159.573364,-108.858253,0.306100,0,0,0
1159.590942,-108.973305,0.306200,0,0,0
1159.583984,-109.019325,0.306300,0,0,0
1159.569824,-109.065346,0.306400,0,0,0
1159.559326,-109.134369,0.306500,0,0,0
1159.454102,-109.778633,0.306600,0,0,0
1159.440063,-109.801651,0.306700,0,0,0
1159.450562,-109.824654,0.306800,0,0,0
1159.450562,-109.870674,0.306900,0,0,0
1159.422485,-109.870674,0.307000,0,0,0
1159.383911,-109.916695,0.307100,0,0,0
1159.366333,-109.916695,0.307200,0,0,0
1159.355835,-109.916695,0.307300,0,0,0
1159.127686,-110.146797,0.307400,0,0,0
1159.106567,-110.146797,0.307500,0,0,0
1159.064453,-110.169800,0.307600,0,0,0
1159.082031,-110.192810,0.307700,0,0,0
1159.057495,-110.261833,0.307800,0,0,0
1159.082031,-110.330872,0.307900,0,0,0
1159.422485,-111.090179,0.308000,0,0,0
1159.419067,-111.136208,0.308100,0,0,0
1159.475098,-111.274261,0.308200,0,0,0
1159.489136,-111.343285,0.308300,0,0,0
1159.527710,-111.435326,0.308400,0,0,0
1159.587524,-111.504356,0.308500,0,0,0
1159.562866,-111.527367,0.308600,0,0,0
1159.566406,-111.596390,0.308700,0,0,0
1159.394409,-111.343285,0.308800,0,0,0
1159.383911,-111.481346,0.308900,0,0,0
1159.426025,-111.688431,0.309000,0,0,0
1159.503296,-111.803482,0.309100,0,0,0
1159.531250,-111.987556,0.309200,0,0,0
1159.598022,-112.194641,0.309300,0,0,0
1159.601440,-112.332703,0.309400,0,0,0
1159.555908,-112.378716,0.309500,0,0,0
1159.531250,-113.782303,0.309600,0,0,0
1159.538330,-113.851334,0.309700,0,0,0
1159.524292,-113.920364,0.309800,0,0,0
1159.566406,-114.035408,0.309900,0,0,0
1159.598022,-114.173462,0.310000,0,0,0
1159.615479,-114.219482,0.310100,0,0,0
1159.611938,-114.265503,0.310200,0,0,0
1159.636597,-114.334534,0.310300,0,0,0
1159.640137,-114.357544,0.310400,0,0,0
1159.731323,-115.254913,0.310500,0,0,0
1159.734863,-115.300934,0.310600,0,0,0
1159.713867,-115.323944,0.310700,0,0,0
1159.654053,-115.369965,0.310800,0,0,0
1159.608521,-115.415985,0.310900,0,0,0
1159.545410,-115.415985,0.311000,0,0,0
1159.510254,-115.438988,0.311100,0,0,0
1159.482178,-115.461998,0.311200,0,0,0
1159.468140,-115.461998,0.311300,0,0,0
1159.450562,-116.405396,0.311400,0,0,0
1159.450562,-116.382385,0.311500,0,0,0
1159.436523,-116.359375,0.311600,0,0,0
1159.426025,-116.336365,0.311700,0,0,0
1159.376953,-116.336365,0.311800,0,0,0
1159.352295,-116.336365,0.311900,0,0,0
1159.289185,-116.382385,0.312000,0,0,0
1159.120728,-117.026649,0.312100,0,0,0
1159.148682,-117.026649,0.312200,0,0,0
1159.141724,-117.003639,0.312300,0,0,0
1159.113525,-116.980637,0.312400,0,0,0
1159.078613,-116.980637,0.312500,0,0,0
1159.057495,-116.980637,0.312600,0,0,0
1159.046997,-117.026649,0.312700,0,0,0
1159.029297,-117.049667,0.312800,0,0,0
1159.022339,-117.141701,0.312900,0,0,0
1159.039917,-117.302765,0.313000,0,0,0
1159.018799,-118.315193,0.313100,0,0,0
1159.011841,-118.384216,0.313200,0,0,0
1159.004883,-118.476250,0.313300,0,0,0
1158.990723,-118.522270,0.313400,0,0,0
1158.980225,-118.545280,0.313500,0,0,0
1158.955688,-118.545280,0.313600,0,0,0
1158.934570,-118.568291,0.313700,0,0,0
1158.973267,-119.373627,0.313800,0,0,0
1159.039917,-119.442657,0.313900,0,0,0
1159.036499,-119.534698,0.314000,0,0,0
1159.018799,-119.580719,0.314100,0,0,0
1158.962769,-119.580719,0.314200,0,0,0
1158.910156,-119.580719,0.314300,0,0,0
1158.878540,-119.557701,0.314400,0,0,0
1158.860840,-119.557701,0.314500,0,0,0
1158.843384,-119.557701,0.314600,0,0,0
1158.822266,-119.557701,0.314700,0,0,0
1158.818726,-119.580719,0.314800,0,0,0
1158.832886,-120.040901,0.314900,0,0,0
1158.829346,-120.017899,0.315000,0,0,0
1158.818726,-120.017899,0.315100,0,0,0
1158.797729,-120.017899,0.315200,0,0,0
1158.783691,-120.040901,0.315300,0,0,0
1158.776611,-120.063919,0.315400,0,0,0
1158.745117,-120.086922,0.315500,0,0,0
1158.748657,-120.155952,0.315600,0,0,0
1158.730957,-120.178963,0.315700,0,0,0
1158.745117,-120.201973,0.315800,0,0,0
1158.846924,-120.777206,0.315900,0,0,0
1158.853882,-120.823227,0.316000,0,0,0
1158.843384,-120.961288,0.316100,0,0,0
1158.829346,-121.007309,0.316200,0,0,0
1158.815186,-121.030312,0.316300,0,0,0
1158.787231,-121.076332,0.316400,0,0,0
1158.755615,-121.122353,0.316500,0,0,0
1158.752075,-121.145363,0.316600,0,0,0
1158.738037,-121.145363,0.316700,0,0,0
1158.717041,-121.145363,0.316800,0,0,0
1158.650269,-121.283424,0.316900,0,0,0
1158.615234,-121.329437,0.317000,0,0,0
1158.597656,-121.398476,0.317100,0,0,0
1158.580200,-121.398476,0.317200,0,0,0
1158.559082,-121.421478,0.317300,0,0,0
1158.527588,-121.421478,0.317400,0,0,0
1158.506470,-121.444489,0.317500,0,0,0
1158.488892,-121.467499,0.317600,0,0,0
1158.467773,-121.467499,0.317700,0,0,0
1158.425659,-121.490509,0.317800,0,0,0
1158.313354,-121.513512,0.317900,0,0,0
1158.264160,-121.490509,0.318000,0,0,0
1158.243164,-121.513512,0.318100,0,0,0
1158.218628,-121.536530,0.318200,0,0,0
1158.204590,-121.582550,0.318300,0,0,0
1158.194092,-121.605553,0.318400,0,0,0
1158.201050,-121.743614,0.318500,0,0,0
1158.225586,-121.766624,0.318600,0,0,0
1158.232666,-121.812637,0.318700,0,0,0
1158.246704,-121.835655,0.318800,0,0,0
1158.246704,-121.835655,0.318900,0,0,0
1158.253662,-121.835655,0.319000,0,0,0
1158.257202,-121.835655,0.319100,0,0,0
1158.246704,-121.812637,0.319200,0,0,0
1158.232666,-121.812637,0.319300,0,0,0
1158.211548,-121.812637,0.319400,0,0,0
1158.183472,-121.812637,0.319500,0,0,0
1158.162476,-121.812637,0.319600,0,0,0
1158.151978,-121.812637,0.319700,0,0,0
1158.141357,-121.881676,0.319800,0,0,0
1158.204590,-121.881676,0.319900,0,0,0
1158.271240,-121.881676,0.320000,0,0,0
1158.292358,-121.812637,0.320100,0,0,0
1158.320435,-121.789635,0.320200,0,0,0
1158.334473,-121.766624,0.320300,0,0,0
1158.306274,-121.812637,0.320400,0,0,0
1158.302856,-121.881676,0.320500,0,0,0
1158.281860,-121.927689,0.320600,0,0,0
1158.316895,-121.973709,0.320700,0,0,0
1158.313354,-122.042732,0.320800,0,0,0
1158.267700,-122.065750,0.320900,0,0,0
1158.278320,-122.134781,0.321000,0,0,0
1158.257202,-122.203804,0.321100,0,0,0
1158.260742,-122.249825,0.321200,0,0,0
1158.229126,-122.272835,0.321300,0,0,0
1158.229126,-122.295837,0.321400,0,0,0
1158.250244,-122.364876,0.321500,0,0,0
1158.267700,-122.364876,0.321600,0,0,0
1158.285278,-122.410889,0.321700,0,0,0
1158.309814,-122.433899,0.321800,0,0,0
1158.267700,-122.571960,0.321900,0,0,0
1158.390625,-122.664001,0.322000,0,0,0
1158.408203,-122.871078,0.322100,0,0,0
1158.495972,-123.124184,0.322200,0,0,0
1158.513428,-123.147194,0.322300,0,0,0
1158.555542,-123.216225,0.322400,0,0,0
1158.618774,-123.285255,0.322500,0,0,0
757.692444,-505.980347,0.322600,0,0,0
757.766113,-505.957336,0.322700,0,0,0
757.397644,-505.865295,0.322800,0,0,0
757.355530,-505.865295,0.322900,0,0,0
757.408142,-505.612183,0.323000,0,0,0
757.285278,-505.543182,0.323100,0,0,0
757.257202,-505.543182,0.323200,0,0,0
757.225647,-505.520172,0.323300,0,0,0
757.180054,-505.520172,0.323400,0,0,0
757.095825,-505.520172,0.323500,0,0,0
757.064209,-505.520172,0.323600,0,0,0
757.032593,-505.543182,0.323700,0,0,0
757.036133,-505.543182,0.323800,0,0,0
756.997498,-505.497162,0.323900,0,0,0
756.976440,-505.428131,0.324000,0,0,0
756.962402,-505.405090,0.324100,0,0,0
756.944824,-505.290070,0.324200,0,0,0
756.913269,-505.221039,0.324300,0,0,0
756.874695,-505.174988,0.324400,0,0,0
756.850098,-505.105988,0.324500,0,0,0
756.804504,-505.082977,0.324600,0,0,0
756.755310,-504.990936,0.324700,0,0,0
756.709717,-504.944946,0.324800,0,0,0
756.667603,-504.898895,0.324900,0,0,0
756.636047,-504.829865,0.325000,0,0,0
756.590393,-504.783844,0.325100,0,0,0
756.548279,-504.645782,0.325200,0,0,0
756.527222,-504.530762,0.325300,0,0,0
756.471069,-504.392670,0.325400,0,0,0
756.432434,-504.300659,0.325500,0,0,0
756.386841,-504.162598,0.325600,0,0,0
756.365784,-504.070557,0.325700,0,0,0
756.313110,-503.909485,0.325800,0,0,0
756.274536,-503.771454,0.325900,0,0,0
756.225342,-503.633362,0.326000,0,0,0
756.183228,-503.495331,0.326100,0,0,0
756.137634,-503.403259,0.326200,0,0,0
756.095520,-503.288239,0.326300,0,0,0
756.046387,-503.173187,0.326400,0,0,0
755.990173,-503.035126,0.326500,0,0,0
755.951599,-502.989136,0.326600,0,0,0
755.902466,-502.897064,0.326700,0,0,0
755.870850,-502.805054,0.326800,0,0,0
755.853333,-502.735992,0.326900,0,0,0
755.828735,-502.620941,0.327000,0,0,0
755.779602,-502.528931,0.327100,0,0,0
755.730469,-502.390869,0.327200,0,0,0
755.695374,-502.275818,0.327300,0,0,0
755.663818,-502.160767,0.327400,0,0,0
755.621704,-502.068726,0.327500,0,0,0
755.586609,-501.999695,0.327600,0,0,0
755.544495,-501.884644,0.327700,0,0,0
755.526917,-501.838623,0.327800,0,0,0
755.498840,-501.792633,0.327900,0,0,0
755.467224,-501.700562,0.328000,0,0,0
755.453247,-501.631561,0.328100,0,0,0
755.449707,-501.539490,0.328200,0,0,0
755.428589,-501.470459,0.328300,0,0,0
755.393555,-501.401459,0.328400,0,0,0
755.375977,-501.355438,0.328500,0,0,0
755.354919,-501.332428,0.328600,0,0,0
755.337402,-501.240387,0.328700,0,0,0
755.288269,-501.217377,0.328800,0,0,0
755.267212,-501.194366,0.328900,0,0,0
755.253113,-501.125336,0.329000,0,0,0
755.218018,-501.079315,0.329100,0,0,0
755.186462,-501.056274,0.329200,0,0,0
755.147827,-501.033295,0.329300,0,0,0
755.102234,-500.964264,0.329400,0,0,0
755.074158,-500.941254,0.329500,0,0,0
755.032043,-500.941254,0.329600,0,0,0
754.996948,-500.918243,0.329700,0,0,0
754.958313,-500.895233,0.329800,0,0,0
754.919678,-500.849243,0.329900,0,0,0
754.919678,-500.849243,0.330000,0,0,0
754.888123,-500.826233,0.330100,0,0,0
754.853027,-500.826233,0.330200,0,0,0
754.803894,-500.803192,0.330300,0,0,0
754.782837,-500.780182,0.330400,0,0,0
754.754761,-500.757172,0.330500,0,0,0
754.740723,-500.688141,0.330600,0,0,0
754.719666,-500.665131,0.330700,0,0,0
754.702087,-500.619141,0.330800,0,0,0
754.677551,-500.550079,0.330900,0,0,0
754.659973,-500.527069,0.331000,0,0,0
754.642456,-500.481049,0.331100,0,0,0
754.593323,-500.458069,0.331200,0,0,0
754.575745,-500.389038,0.331300,0,0,0
754.600342,-500.343018,0.331400,0,0,0
754.558228,-500.250977,0.331500,0,0,0
754.530151,-500.204956,0.331600,0,0,0
754.484497,-500.204956,0.331700,0,0,0
754.452881,-500.181946,0.331800,0,0,0
754.400269,-500.204956,0.331900,0,0,0
754.361694,-500.181946,0.332000,0,0,0
754.347595,-500.089874,0.332100,0,0,0
754.326538,-500.043884,0.332200,0,0,0
754.298523,-499.974854,0.332300,0,0,0
754.252869,-499.951843,0.332400,0,0,0
754.158081,-499.790771,0.332500,0,0,0
754.207275,-499.882812,0.332600,0,0,0
754.094910,-499.744751,0.332700,0,0,0
754.010681,-499.698730,0.332800,0,0,0
753.954529,-499.652740,0.332900,0,0,0
753.901855,-499.606689,0.333000,0,0,0
753.835205,-499.537659,0.333100,0,0,0
753.782532,-499.468658,0.333200,0,0,0
753.733398,-499.376617,0.333300,0,0,0
753.684265,-499.307556,0.333400,0,0,0
753.631592,-499.238556,0.333500,0,0,0
753.600037,-499.261566,0.333600,0,0,0
753.561462,-499.215546,0.333700,0,0,0
753.505249,-499.169525,0.333800,0,0,0
753.442078,-499.123474,0.333900,0,0,0
753.375427,-499.100464,0.334000,0,0,0
753.305237,-498.916412,0.334100,0,0,0
753.150757,-498.778351,0.334200,0,0,0
752.957703,-499.399628,0.334300,0,0,0
752.789246,-499.077484,0.334400,0,0,0
752.887573,-498.824371,0.334500,0,0,0
753.301758,-498.640320,0.334600,0,0,0
752.508484,-499.353577,0.334700,0,0,0
752.273376,-499.192535,0.334800,0,0,0
751.852173,-499.169525,0.334900,0,0,0
751.841614,-499.169525,0.335000,0,0,0
751.883728,-499.146515,0.335100,0,0,0
751.932922,-499.146515,0.335200,0,0,0
751.880249,-499.031464,0.335300,0,0,0
751.918823,-498.824371,0.335400,0,0,0
751.827637,-498.640320,0.335500,0,0,0
751.845154,-498.410217,0.335600,0,0,0
752.013672,-498.157074,0.335700,0,0,0
752.101379,-497.996033,0.335800,0,0,0
752.020630,-497.996033,0.335900,0,0,0
751.996094,-497.627869,0.336000,0,0,0
751.620544,-497.650879,0.336100,0,0,0
752.213684,-497.512848,0.336200,0,0,0
751.810059,-497.535828,0.336300,0,0,0
751.764465,-497.328766,0.336400,0,0,0
694.235535,-540.816833,0.336500,0,0,0
694.302246,-540.793823,0.336600,0,0,0
694.347839,-540.724792,0.336700,0,0,0
694.288147,-540.793823,0.336800,0,0,0
694.165344,-541.069946,0.336900,0,0,0
694.126709,-541.046875,0.337000,0,0,0
694.038940,-541.046875,0.337100,0,0,0
693.996826,-541.046875,0.337200,0,0,0
693.954712,-541.023926,0.337300,0,0,0
693.737122,-541.069946,0.337400,0,0,0
693.631836,-541.069946,0.337500,0,0,0
693.551086,-541.046875,0.337600,0,0,0
693.502014,-541.046875,0.337700,0,0,0
693.326538,-541.046875,0.337800,0,0,0
693.207153,-541.023926,0.337900,0,0,0
693.158081,-541.023926,0.338000,0,0,0
693.070251,-541.046875,0.338100,0,0,0
692.986023,-541.046875,0.338200,0,0,0
692.792969,-541.046875,0.338300,0,0,0
692.761414,-541.023926,0.338400,0,0,0
692.663147,-541.023926,0.338500,0,0,0
692.606995,-541.000916,0.338600,0,0,0
692.501709,-540.931885,0.338700,0,0,0
692.473633,-540.931885,0.338800,0,0,0
692.456055,-540.954895,0.338900,0,0,0
692.368347,-540.954895,0.339000,0,0,0
692.322693,-540.954895,0.339100,0,0,0
692.273560,-540.954895,0.339200,0,0,0
692.161255,-540.954895,0.339300,0,0,0
692.105103,-540.931885,0.339400,0,0,0
692.045410,-540.931885,0.339500,0,0,0
691.905029,-540.885864,0.339600,0,0,0
691.859436,-540.862854,0.339700,0,0,0
691.813782,-540.862854,0.339800,0,0,0
691.708496,-540.839905,0.339900,0,0,0
691.673401,-540.839905,0.340000,0,0,0
691.690918,-540.862854,0.340100,0,0,0
691.697937,-540.931885,0.340200,0,0,0
691.690918,-540.931885,0.340300,0,0,0
691.690918,-540.931885,0.340400,0,0,0
691.578674,-540.908875,0.340500,0,0,0
691.497925,-540.931885,0.340600,0,0,0
691.459290,-540.931885,0.340700,0,0,0
691.417175,-540.862854,0.340800,0,0,0
691.375061,-540.862854,0.340900,0,0,0
691.287292,-540.862854,0.341000,0,0,0
691.276733,-540.862854,0.341100,0,0,0
691.125854,-540.839905,0.341200,0,0,0
690.999512,-540.816833,0.341300,0,0,0
690.845093,-540.701782,0.341400,0,0,0
690.708191,-540.632812,0.341500,0,0,0
690.553772,-540.586731,0.341600,0,0,0
690.459045,-540.494690,0.341700,0,0,0
690.381775,-540.471680,0.341800,0,0,0
690.248413,-540.402649,0.341900,0,0,0
690.216797,-540.425720,0.342000,0,0,0
690.093994,-540.356628,0.342100,0,0,0
690.016785,-540.333618,0.342200,0,0,0
689.848328,-540.264587,0.342300,0,0,0
689.721985,-540.172607,0.342400,0,0,0
689.697388,-540.149536,0.342500,0,0,0
689.637756,-540.057556,0.342600,0,0,0
689.574585,-540.034485,0.342700,0,0,0
689.514893,-540.011536,0.342800,0,0,0
689.493835,-539.988464,0.342900,0,0,0
689.413086,-539.873413,0.343000,0,0,0
689.406067,-539.850403,0.343100,0,0,0
689.395508,-539.781372,0.343200,0,0,0
689.342896,-539.758423,0.343300,0,0,0
689.314819,-539.758423,0.343400,0,0,0
689.220032,-539.597290,0.343500,0,0,0
689.184937,-539.482300,0.343600,0,0,0
689.195496,-539.482300,0.343700,0,0,0
689.241089,-539.413269,0.343800,0,0,0
689.234131,-539.367249,0.343900,0,0,0
689.198975,-539.298218,0.344000,0,0,0
689.146301,-539.252197,0.344100,0,0,0
689.128845,-539.252197,0.344200,0,0,0
689.114746,-539.183167,0.344300,0,0,0
689.104187,-539.114136,0.344400,0,0,0
689.104187,-538.907043,0.344500,0,0,0
689.097229,-538.838013,0.344600,0,0,0
689.090210,-538.815002,0.344700,0,0,0
689.114746,-538.699951,0.344800,0,0,0
689.118286,-538.676941,0.344900,0,0,0
689.083130,-538.584900,0.345000,0,0,0
689.090210,-538.492859,0.345100,0,0,0
689.104187,-538.446838,0.345200,0,0,0
689.048096,-538.308777,0.345300,0,0,0
689.055115,-538.285767,0.345400,0,0,0
689.002441,-538.193787,0.345500,0,0,0
688.977844,-538.193787,0.345600,0,0,0
688.907654,-538.101685,0.345700,0,0,0
688.869080,-538.009705,0.345800,0,0,0
688.862061,-537.986694,0.345900,0,0,0
688.805908,-537.917603,0.346000,0,0,0
688.767273,-537.848572,0.346100,0,0,0
688.714661,-537.687500,0.346200,0,0,0
688.718140,-537.549500,0.346300,0,0,0
688.756775,-537.457397,0.346400,0,0,0
688.760254,-537.388428,0.346500,0,0,0
688.781311,-537.250366,0.346600,0,0,0
688.823425,-537.181335,0.346700,0,0,0
688.904175,-537.135315,0.346800,0,0,0
688.939270,-537.020264,0.346900,0,0,0
688.911194,-536.951233,0.347000,0,0,0
688.872559,-536.790161,0.347100,0,0,0
688.862061,-536.583069,0.347200,0,0,0
688.809387,-536.445007,0.347300,0,0,0
688.791870,-536.352966,0.347400,0,0,0
688.798889,-536.237915,0.347500,0,0,0
688.791870,-536.099854,0.347600,0,0,0
688.739197,-536.030884,0.347700,0,0,0
688.721619,-535.961792,0.347800,0,0,0
688.647949,-535.777771,0.347900,0,0,0
688.647949,-535.662720,0.348000,0,0,0
688.609375,-535.570679,0.348100,0,0,0
688.591797,-535.524597,0.348200,0,0,0
688.556702,-535.432617,0.348300,0,0,0
688.504028,-535.363586,0.348400,0,0,0
688.433899,-535.248535,0.348500,0,0,0
688.349670,-535.087463,0.348600,0,0,0
688.332092,-535.041443,0.348700,0,0,0
688.293457,-534.903381,0.348800,0,0,0
688.212708,-534.742310,0.348900,0,0,0
688.156616,-534.604248,0.349000,0,0,0
688.160095,-534.443176,0.349100,0,0,0
688.030273,-534.305115,0.349200,0,0,0
687.882812,-534.121033,0.349300,0,0,0
687.840698,-534.098083,0.349400,0,0,0
687.830200,-534.075073,0.349500,0,0,0
687.752930,-534.028992,0.349600,0,0,0
687.675781,-533.936951,0.349700,0,0,0
687.609070,-533.890991,0.349800,0,0,0
687.521301,-533.752869,0.349900,0,0,0
687.447632,-533.545776,0.350000,0,0,0
687.401978,-533.476807,0.350100,0,0,0
687.394958,-533.430786,0.350200,0,0,0
687.282654,-533.246704,0.350300,0,0,0
687.212463,-533.200684,0.350400,0,0,0
687.072083,-533.108643,0.350500,0,0,0
687.022949,-533.108643,0.350600,0,0,0
686.970276,-533.062622,0.350700,0,0,0
686.987793,-532.878540,0.350800,0,0,0
687.044006,-532.786499,0.350900,0,0,0
687.075562,-532.740479,0.351000,0,0,0
687.019470,-532.763489,0.351100,0,0,0
686.994812,-532.763489,0.351200,0,0,0
686.942200,-532.740479,0.351300,0,0,0
686.671936,-532.648438,0.351400,0,0,0
686.580688,-532.625427,0.351500,0,0,0
686.489380,-532.579407,0.351600,0,0,0
686.303467,-532.441345,0.351700,0,0,0
686.201660,-532.372314,0.351800,0,0,0
686.156006,-532.326294,0.351900,0,0,0
686.085815,-532.326294,0.352000,0,0,0
685.952454,-532.280273,0.352100,0,0,0
685.819092,-532.234253,0.352200,0,0,0
685.685669,-532.142273,0.352300,0,0,0
685.615479,-532.073181,0.352400,0,0,0
685.573364,-532.004150,0.352500,0,0,0
685.545349,-531.912170,0.352600,0,0,0
685.492676,-531.797058,0.352700,0,0,0
685.397888,-531.705078,0.352800,0,0,0
685.334717,-531.635986,0.352900,0,0,0
685.222351,-531.497986,0.353000,0,0,0
685.127625,-531.359924,0.353100,0,0,0
684.994324,-531.244873,0.353200,0,0,0
684.952148,-531.175781,0.353300,0,0,0
684.962646,-531.106812,0.353400,0,0,0
684.931091,-531.083801,0.353500,0,0,0
684.895996,-531.083801,0.353600,0,0,0
684.829346,-531.083801,0.353700,0,0,0
684.815247,-531.060791,0.353800,0,0,0
684.808289,-530.968750,0.353900,0,0,0
684.780151,-530.922729,0.354000,0,0,0
684.762634,-530.876709,0.354100,0,0,0
684.762634,-530.761658,0.354200,0,0,0
684.759094,-530.738647,0.354300,0,0,0
684.745117,-530.623596,0.354400,0,0,0
684.720520,-530.577576,0.354500,0,0,0
684.650269,-530.485535,0.354600,0,0,0
684.569580,-530.393494,0.354700,0,0,0
684.495911,-530.324463,0.354800,0,0,0
684.471313,-530.209412,0.354900,0,0,0
684.397583,-530.163391,0.355000,0,0,0
684.376526,-530.140381,0.355100,0,0,0
684.344971,-530.071350,0.355200,0,0,0
684.302856,-530.025330,0.355300,0,0,0
684.267761,-529.956299,0.355400,0,0,0
684.232666,-529.933289,0.355500,0,0,0
684.218628,-529.887268,0.355600,0,0,0
684.165955,-529.864258,0.355700,0,0,0
684.197571,-529.841248,0.355800,0,0,0
649.110229,-563.872437,0.355900,0,0,0
649.047058,-563.987427,0.356000,0,0,0
648.495972,-563.918457,0.356100,0,0,0
648.422302,-563.987427,0.356200,0,0,0
647.937988,-563.987427,0.356300,0,0,0
647.885254,-564.010498,0.356400,0,0,0
647.811584,-564.079529,0.356500,0,0,0
647.709839,-564.171570,0.356600,0,0,0
647.579956,-564.332642,0.356700,0,0,0
647.446594,-564.424683,0.356800,0,0,0
647.306213,-564.378662,0.356900,0,0,0
647.221985,-564.309631,0.357000,0,0,0
646.923645,-564.286560,0.357100,0,0,0
646.737610,-564.309631,0.357200,0,0,0
646.604248,-564.309631,0.357300,0,0,0
646.551575,-564.309631,0.357400,0,0,0
646.484924,-564.286560,0.357500,0,0,0
646.386597,-564.286560,0.357600,0,0,0
646.183105,-564.263611,0.357700,0,0,0
646.077759,-564.286560,0.357800,0,0,0
645.926880,-564.171570,0.357900,0,0,0
645.811035,-564.125549,0.358000,0,0,0
645.670654,-564.079529,0.358100,0,0,0
645.586426,-564.010498,0.358200,0,0,0
645.582886,-563.987427,0.358300,0,0,0
645.530273,-563.918457,0.358400,0,0,0
645.491638,-563.895447,0.358500,0,0,0
645.431946,-563.849426,0.358600,0,0,0
645.365295,-563.780334,0.358700,0,0,0
645.333740,-563.734314,0.358800,0,0,0
645.242432,-563.642334,0.358900,0,0,0
645.256470,-563.619324,0.359000,0,0,0
645.252991,-563.596313,0.359100,0,0,0
645.238953,-563.504272,0.359200,0,0,0
645.179260,-563.435242,0.359300,0,0,0
645.116089,-563.412231,0.359400,0,0,0
645.028320,-563.343201,0.359500,0,0,0
644.944092,-563.205139,0.359600,0,0,0
644.884399,-563.090088,0.359700,0,0,0
644.870422,-563.044067,0.359800,0,0,0
644.852844,-562.906067,0.359900,0,0,0
644.842285,-562.882996,0.360000,0,0,0
644.723022,-562.721924,0.360100,0,0,0
644.652771,-562.606873,0.360200,0,0,0
644.621216,-562.560852,0.360300,0,0,0
644.589600,-562.468811,0.360400,0,0,0
644.575623,-562.399841,0.360500,0,0,0
644.533508,-562.284790,0.360600,0,0,0
644.536987,-562.192749,0.360700,0,0,0
644.558044,-562.146729,0.360800,0,0,0
644.582581,-562.031677,0.360900,0,0,0
644.568542,-561.985657,0.361000,0,0,0
644.565063,-561.893555,0.361100,0,0,0
644.568542,-561.778564,0.361200,0,0,0
644.550964,-561.732544,0.361300,0,0,0
644.526428,-561.640442,0.361400,0,0,0
644.508850,-561.548462,0.361500,0,0,0
644.466736,-561.433411,0.361600,0,0,0
644.400085,-561.364380,0.361700,0,0,0
644.364990,-561.295349,0.361800,0,0,0
644.333374,-561.226318,0.361900,0,0,0
644.287781,-561.134277,0.362000,0,0,0
644.242188,-561.042236,0.362100,0,0,0
644.185974,-560.858154,0.362200,0,0,0
644.136902,-560.766174,0.362300,0,0,0
644.108765,-560.697083,0.362400,0,0,0
644.066650,-560.628052,0.362500,0,0,0
644.035095,-560.605042,0.362600,0,0,0
643.880676,-560.420959,0.362700,0,0,0
643.810425,-560.328918,0.362800,0,0,0
643.719177,-560.213928,0.362900,0,0,0
643.578796,-560.029785,0.363000,0,0,0
643.543701,-559.960815,0.363100,0,0,0
643.522644,-559.914734,0.363200,0,0,0
643.501587,-559.868713,0.363300,0,0,0
643.480530,-559.799744,0.363400,0,0,0
643.448914,-559.684692,0.363500,0,0,0
643.413818,-559.592651,0.363600,0,0,0
643.368225,-559.569641,0.363700,0,0,0
643.364685,-559.500610,0.363800,0,0,0
643.340149,-559.362549,0.363900,0,0,0
643.266479,-559.247498,0.364000,0,0,0
643.234863,-559.178467,0.364100,0,0,0
643.171692,-559.132446,0.364200,0,0,0
643.143616,-559.040405,0.364300,0,0,0
643.122559,-558.948364,0.364400,0,0,0
643.104980,-558.902344,0.364500,0,0,0
643.080444,-558.856323,0.364600,0,0,0
643.048828,-558.833374,0.364700,0,0,0
642.982117,-558.718262,0.364800,0,0,0
642.904907,-558.626282,0.364900,0,0,0
642.862793,-558.580261,0.365000,0,0,0
642.789124,-558.465149,0.365100,0,0,0
642.715393,-558.396118,0.365200,0,0,0
642.638184,-558.258057,0.365300,0,0,0
642.578491,-558.189026,0.365400,0,0,0
642.529419,-558.120056,0.365500,0,0,0
642.462646,-558.028015,0.365600,0,0,0
642.420532,-557.912964,0.365700,0,0,0
642.406555,-557.866943,0.365800,0,0,0
642.374939,-557.751892,0.365900,0,0,0
642.350403,-557.682800,0.366000,0,0,0
642.311768,-557.590820,0.366100,0,0,0
642.297729,-557.544800,0.366200,0,0,0
642.259155,-557.452759,0.366300,0,0,0
642.206482,-557.383728,0.366400,0,0,0
642.185425,-557.314697,0.366500,0,0,0
642.129272,-557.222656,0.366600,0,0,0
642.045044,-557.084595,0.366700,0,0,0
642.020447,-557.015564,0.366800,0,0,0
641.981873,-556.992554,0.366900,0,0,0
641.925720,-556.946533,0.367000,0,0,0
641.816895,-556.831482,0.367100,0,0,0
641.781799,-556.739441,0.367200,0,0,0
641.739685,-556.693420,0.367300,0,0,0
641.704590,-556.647461,0.367400,0,0,0
641.676514,-556.578369,0.367500,0,0,0
641.648438,-556.509338,0.367600,0,0,0
641.613342,-556.417297,0.367700,0,0,0
641.571167,-556.302246,0.367800,0,0,0
641.557129,-556.256226,0.367900,0,0,0
641.546631,-556.164185,0.368000,0,0,0
641.497498,-556.049133,0.368100,0,0,0
641.479980,-555.980164,0.368200,0,0,0
641.444824,-555.911072,0.368300,0,0,0
641.423767,-555.865112,0.368400,0,0,0
641.413269,-555.819092,0.368500,0,0,0
641.406250,-555.773071,0.368600,0,0,0
641.388672,-555.704041,0.368700,0,0,0
641.385193,-555.704041,0.368800,0,0,0
710.240112,-516.587769,0.368900,0,0,0
710.247192,-516.656799,0.369000,0,0,0
710.155884,-516.817871,0.369100,0,0,0
710.071655,-516.909912,0.369200,0,0,0
709.973450,-517.047974,0.369300,0,0,0
709.854065,-517.116943,0.369400,0,0,0
709.745300,-517.163025,0.369500,0,0,0
709.692627,-517.139954,0.369600,0,0,0
709.576782,-517.163025,0.369700,0,0,0
709.524109,-517.163025,0.369800,0,0,0
709.439880,-517.163025,0.369900,0,0,0
709.376709,-517.232056,0.370000,0,0,0
709.253906,-517.278076,0.370100,0,0,0
709.197754,-517.324036,0.370200,0,0,0
709.131104,-517.347046,0.370300,0,0,0
709.015198,-517.370056,0.370400,0,0,0
708.867798,-517.416138,0.370500,0,0,0
708.762512,-517.462158,0.370600,0,0,0
708.678284,-517.531128,0.370700,0,0,0
708.625671,-517.600159,0.370800,0,0,0
708.537903,-517.692200,0.370900,0,0,0
708.408081,-517.784241,0.371000,0,0,0
708.302734,-517.899292,0.371100,0,0,0
708.208008,-518.014343,0.371200,0,0,0
708.120239,-518.083374,0.371300,0,0,0
707.965820,-518.106384,0.371400,0,0,0
707.783325,-518.106384,0.371500,0,0,0
707.646423,-518.106384,0.371600,0,0,0
707.506042,-518.083374,0.371700,0,0,0
707.425293,-518.152405,0.371800,0,0,0
707.334106,-518.221436,0.371900,0,0,0
707.260315,-518.267456,0.372000,0,0,0
707.200684,-518.336487,0.372100,0,0,0
707.077820,-518.474548,0.372200,0,0,0
706.976074,-518.566589,0.372300,0,0,0
706.881287,-518.635620,0.372400,0,0,0
706.800537,-518.750671,0.372500,0,0,0
706.726868,-518.796692,0.372600,0,0,0
706.695251,-518.865723,0.372700,0,0,0
706.642639,-518.911743,0.372800,0,0,0
706.597046,-518.980774,0.372900,0,0,0
706.530273,-519.072754,0.373000,0,0,0
706.456604,-519.141846,0.373100,0,0,0
706.382935,-519.233887,0.373200,0,0,0
706.288147,-519.256836,0.373300,0,0,0
706.210876,-519.279846,0.373400,0,0,0
706.168762,-519.348938,0.373500,0,0,0
706.095093,-519.371948,0.373600,0,0,0
705.972229,-519.440918,0.373700,0,0,0
705.881042,-519.486938,0.373800,0,0,0
705.772217,-519.579041,0.373900,0,0,0
705.645874,-519.602051,0.374000,0,0,0
705.480896,-519.671021,0.374100,0,0,0
705.330017,-519.671021,0.374200,0,0,0
705.210632,-519.740051,0.374300,0,0,0
705.070251,-519.809143,0.374400,0,0,0
704.919312,-519.901123,0.374500,0,0,0
704.824585,-519.947144,0.374600,0,0,0
704.694702,-520.016174,0.374700,0,0,0
704.606934,-520.108215,0.374800,0,0,0
704.519226,-520.246277,0.374900,0,0,0
704.470093,-520.338318,0.375000,0,0,0
704.445496,-520.476379,0.375100,0,0,0
704.403381,-520.614441,0.375200,0,0,0
704.333191,-520.752502,0.375300,0,0,0
704.231445,-520.867554,0.375400,0,0,0
704.143616,-520.959595,0.375500,0,0,0
704.010315,-521.074646,0.375600,0,0,0
703.890930,-521.143677,0.375700,0,0,0
703.789185,-521.281738,0.375800,0,0,0
703.690918,-521.396729,0.375900,0,0,0
703.561035,-521.465759,0.376000,0,0,0
703.455750,-521.603821,0.376100,0,0,0
703.353943,-521.695862,0.376200,0,0,0
703.220581,-521.787903,0.376300,0,0,0
703.125793,-521.856934,0.376400,0,0,0
703.013550,-521.948975,0.376500,0,0,0
702.911743,-522.041016,0.376600,0,0,0
702.823975,-522.133057,0.376700,0,0,0
702.694153,-522.225098,0.376800,0,0,0
702.588867,-522.271118,0.376900,0,0,0
702.444946,-522.317139,0.377000,0,0,0
702.290527,-522.409180,0.377100,0,0,0
702.188721,-522.478210,0.377200,0,0,0
702.076355,-522.547241,0.377300,0,0,0
701.988647,-522.616272,0.377400,0,0,0
701.869324,-522.708313,0.377500,0,0,0
701.757019,-522.777344,0.377600,0,0,0
701.616638,-522.892395,0.377700,0,0,0
701.476257,-522.938416,0.377800,0,0,0
701.321838,-522.984436,0.377900,0,0,0
701.156860,-523.099487,0.378000,0,0,0
701.026978,-523.168457,0.378100,0,0,0
700.883057,-523.214539,0.378200,0,0,0
700.753235,-523.283569,0.378300,0,0,0
700.623291,-523.329590,0.378400,0,0,0
700.514526,-523.398560,0.378500,0,0,0
700.342529,-523.444641,0.378600,0,0,0
700.181152,-523.513672,0.378700,0,0,0
700.019653,-523.582642,0.378800,0,0,0
699.865234,-523.651672,0.378900,0,0,0
699.714294,-523.720764,0.379000,0,0,0
699.573914,-523.812744,0.379100,0,0,0
699.437012,-523.881775,0.379200,0,0,0
699.331726,-523.973816,0.379300,0,0,0
699.180786,-524.019836,0.379400,0,0,0
699.040405,-524.111877,0.379500,0,0,0
698.900024,-524.157898,0.379600,0,0,0
698.770203,-524.203918,0.379700,0,0,0
698.647339,-524.249939,0.379800,0,0,0
698.520996,-524.318970,0.379900,0,0,0
698.426208,-524.341980,0.380000,0,0,0
698.268311,-524.364990,0.380100,0,0,0
698.152405,-524.388000,0.380200,0,0,0
697.994507,-524.434021,0.380300,0,0,0
697.857605,-524.457031,0.380400,0,0,0
697.731262,-524.457031,0.380500,0,0,0
697.562805,-524.549072,0.380600,0,0,0
697.471558,-524.595093,0.380700,0,0,0
697.387329,-524.641113,0.380800,0,0,0
697.243408,-524.733154,0.380900,0,0,0
697.120544,-524.779175,0.381000,0,0,0
697.004761,-524.779175,0.381100,0,0,0
696.867859,-524.825195,0.381200,0,0,0
696.748535,-524.894226,0.381300,0,0,0
696.646729,-524.917236,0.381400,0,0,0
696.492371,-524.986267,0.381500,0,0,0
696.422119,-524.986267,0.381600,0,0,0
696.337891,-525.055298,0.381700,0,0,0
696.201050,-525.124268,0.381800,0,0,0
696.088745,-525.239380,0.381900,0,0,0
695.979858,-525.308350,0.382000,0,0,0
695.850037,-525.354370,0.382100,0,0,0
695.758789,-525.400452,0.382200,0,0,0
695.653503,-525.423462,0.382300,0,0,0
695.527161,-525.446472,0.382400,0,0,0
695.414856,-525.492493,0.382500,0,0,0
695.281433,-525.538452,0.382600,0,0,0
695.176147,-525.630554,0.382700,0,0,0
695.102478,-525.699524,0.382800,0,0,0
695.035767,-525.768555,0.382900,0,0,0
694.930481,-525.837585,0.383000,0,0,0
694.828674,-525.952637,0.383100,0,0,0
694.765503,-526.090698,0.383200,0,0,0
694.709351,-526.136719,0.383300,0,0,0
694.663757,-526.251770,0.383400,0,0,0
694.618103,-526.320801,0.383500,0,0,0
694.544373,-526.435852,0.383600,0,0,0
694.470703,-526.504883,0.383700,0,0,0
694.333801,-526.596924,0.383800,0,0,0
694.214478,-526.665955,0.383900,0,0,0
694.067078,-526.757996,0.384000,0,0,0
693.895142,-526.850037,0.384100,0,0,0
693.705566,-526.942078,0.384200,0,0,0
693.554626,-526.965088,0.384300,0,0,0
693.435303,-526.988098,0.384400,0,0,0
693.249268,-527.011108,0.384500,0,0,0
693.112366,-527.057129,0.384600,0,0,0
693.003601,-527.126160,0.384700,0,0,0
692.852661,-527.149170,0.384800,0,0,0
